# .PCD v0.7 - Point Cloud Data file format
VERSION 0.7
FIELDS x y z rgb
SIZE 4 4 4 4
TYPE F F F F
COUNT 1 1 1 1
WIDTH 1127
HEIGHT 1
VIEWPOINT 0 0 0 1 0 0 0
POINTS 1127
DATA ascii
0.002817880362 -0.1127454937 0.658000052 0
0.004343288485 -0.1125741452 0.6570000052 0
0.005855100695 -0.1122314557 0.655000031 0
0.007368867751 -0.1120601147 0.6540000439 0
0.008864381351 -0.1117174178 0.65200001 0
0.01036650687 -0.1115460694 0.6510000229 0
0.01186397485 -0.1113747284 0.6500000358 0
0.01335678808 -0.1112033874 0.6490000486 0
0.01486785151 -0.1112033874 0.6490000486 0
0.01637891494 -0.1112033874 0.6490000486 0
0.01788998023 -0.1112033874 0.6490000486 0
0.01940104365 -0.1112033874 0.6490000486 0
0.02094432898 -0.1113747284 0.6500000358 0
0.02245772071 -0.1113747284 0.6500000358 0
0.02404487319 -0.1117174178 0.65200001 0
0.02560213022 -0.1118887663 0.6530000567 0
0.027164042 -0.1120601147 0.6540000439 0
0.02877447195 -0.1124027967 0.6560000181 0
0.0304404106 -0.1129168421 0.6590000391 0
0.03212032095 -0.11343088 0.6620000601 0
0.03371249884 -0.113602221 0.6630000472 0
0.03536251187 -0.1139449105 0.6650000215 0
0.03702184185 -0.1142876074 0.6670000553 0
0.03869047761 -0.1146302968 0.6690000296 0
0.05914086103 -0.1120601147 0.6540000439 0
0.06066356599 -0.1120601147 0.6540000439 0
0.06209118664 -0.1118887663 0.6530000567 0
0.06361155957 -0.1118887663 0.6530000567 0
0.06513193995 -0.1118887663 0.6530000567 0
0.09915862978 -0.1381046623 0.8060000539 0
0.1011605933 -0.1382760108 0.807000041 0
0.103167206 -0.1384473443 0.8080000281 0
0.1054385006 -0.1389613897 0.8110000491 0
0.1074590907 -0.1391327381 0.8120000362 0
0.1096189991 -0.1394754201 0.8140000105 0
0.1117882207 -0.139818117 0.8160000443 0
0.1138274372 -0.1399894655 0.8170000315 0
0.1158713028 -0.1401608139 0.8180000186 0
0.1165719852 -0.1146302968 0.6690000296 0
0.118129611 -0.1146302968 0.6690000296 0
0.1193294451 -0.1142876074 0.6670000553 0
0.1208824143 -0.1142876074 0.6670000553 0
0.1224353835 -0.1142876074 0.6670000553 0
0.1238024682 -0.1141162515 0.6660000086 0
0.1259177625 -0.1146302968 0.6690000296 0
0.1276659369 -0.1148016378 0.6700000167 0
0.1298045218 -0.1153156832 0.6730000377 0
0.1315666735 -0.1154870242 0.6740000248 0
0.1333334744 -0.1156583652 0.6750000119 0
0.1353047937 -0.1160010621 0.6770000458 0
0.1372854263 -0.1163437515 0.67900002 0
0.1388663352 -0.1163437515 0.67900002 0
0.140860945 -0.1166864485 0.6810000539 0
0.1424465179 -0.1166864485 0.6810000539 0
0.1436090767 -0.1163437515 0.67900002 0
0.1451899856 -0.1163437515 0.67900002 0
0.1465547383 -0.1161724105 0.6780000329 0
0.1476963609 -0.1158297211 0.6760000587 0
0.1490494609 -0.1156583652 0.6750000119 0
0.1501747817 -0.1153156832 0.6730000377 0
0.1515162736 -0.1151443347 0.6720000505 0
0.1523974836 -0.1146302968 0.6690000296 0
0.1537249833 -0.1144589484 0.6680000424 0
0.1548153758 -0.1141162515 0.6660000086 0
0.1561312377 -0.1139449105 0.6650000215 0
0.1574424356 -0.1137735695 0.6640000343 0
0.1585095525 -0.11343088 0.6620000601 0
0.1598091125 -0.1132595241 0.6610000134 0
0.1611040086 -0.1130881831 0.6600000262 0
0.1626406908 -0.1130881831 0.6600000262 0
0.1639286131 -0.1129168421 0.6590000391 0
0.1654629558 -0.1129168421 0.6590000391 0
0.1667439044 -0.1127454937 0.658000052 0
0.1685316563 -0.1129168421 0.6590000391 0
0.170065999 -0.1129168421 0.6590000391 0
0.1713399589 -0.1127454937 0.658000052 0
0.1733974218 -0.1130881831 0.6600000262 0
0.1749340892 -0.1130881831 0.6600000262 0
0.1764707714 -0.1130881831 0.6600000262 0
0.1785468757 -0.11343088 0.6620000601 0
0.1803602278 -0.113602221 0.6630000472 0
0.1835500747 -0.1146302968 0.6690000296 0
0.2011387199 -0.1185712442 0.6920000315 0
0.202749908 -0.1185712442 0.6920000315 0
0.2040657848 -0.1183999032 0.6910000443 0
0.2053769827 -0.1182285622 0.6900000572 0
0.2066835165 -0.1180572063 0.6890000105 0
0.2082877308 -0.1180572063 0.6890000105 0
0.209587276 -0.1178858653 0.6880000234 0
0.2105752379 -0.1175431758 0.6860000491 0
0.211863175 -0.1173718348 0.685000062 0
0.2134580463 -0.1173718348 0.685000062 0
0.2150529325 -0.1173718348 0.685000062 0
0.2163315415 -0.1172004789 0.6840000153 0
0.2176054716 -0.1170291379 0.6830000281 0
0.2191957086 -0.1170291379 0.6830000281 0
0.2204626948 -0.1168577895 0.682000041 0
0.221724987 -0.1166864485 0.6810000539 0
0.2233105749 -0.1166864485 0.6810000539 0
0.2248961478 -0.1166864485 0.6810000539 0
0.2264817059 -0.1166864485 0.6810000539 0
0.2277323604 -0.1165150926 0.6800000072 0
0.2296528369 -0.1166864485 0.6810000539 0
0.2312384099 -0.1166864485 0.6810000539 0
0.8903970718 -0.3152761459 1.840000033 0
-0.1422801018 -0.05797298253 0.3430000246 0
-0.1410690248 -0.05780396238 0.3420000076 0
-0.1402727365 -0.05780396238 0.3420000076 0
-0.1394764632 -0.05780396238 0.3420000076 0
-0.1688963175 -0.1249038875 0.7390000224 0
-0.1671756953 -0.1249038875 0.7390000224 0
-0.165678978 -0.1250728965 0.7400000095 0
-0.1639560461 -0.1250728965 0.7400000095 0
-0.1624523401 -0.1252419353 0.7410000563 0
-0.1611608863 -0.1255799532 0.7430000305 0
-0.1594309658 -0.1255799532 0.7430000305 0
-0.1579132825 -0.1257489771 0.7440000176 0
-0.156390965 -0.1259180009 0.7450000644 0
-0.1548639685 -0.1260870099 0.7460000515 0
-0.1533323228 -0.1262560338 0.7470000386 0
-0.1517960131 -0.1264250427 0.7480000257 0
-0.1504556835 -0.1267630905 0.7500000596 0
-0.1491060108 -0.1271011233 0.7520000339 0
-0.1479429752 -0.1276081651 0.7550000548 0
-0.1465723664 -0.127946198 0.7570000291 0
-0.1450011432 -0.1281152219 0.7580000162 0
-0.1438031942 -0.1286222786 0.7610000372 0
-0.1422179937 -0.1287912875 0.7620000243 0
-0.1409967691 -0.1292983443 0.7650000453 0
-0.1395795792 -0.1296363771 0.7670000196 0
-0.1379734129 -0.1298053861 0.7680000067 0
-0.136539951 -0.1301434338 0.7700000405 0
-0.135097146 -0.1304814667 0.7720000148 0
-0.1338177025 -0.1309885234 0.7750000358 0
-0.132864967 -0.131833598 0.780000031 0
-0.1317209601 -0.1325096786 0.7840000391 0
-0.1310553551 -0.1336927861 0.7910000086 0
-0.1300304383 -0.1345378906 0.7960000634 0
-0.1291432828 -0.1355519891 0.8020000458 0
-0.1280694753 -0.1363970786 0.807000041 0
-0.1274414957 -0.1377492249 0.8150000572 0
-0.1267762631 -0.1391013563 0.8230000138 0
-0.1260737926 -0.1404534876 0.83100003 0
-0.1248858944 -0.1412985772 0.8360000253 0
-0.1238217875 -0.1423126906 0.8420000672 0
-0.1225850061 -0.1431577802 0.8470000625 0
-0.1210401431 -0.143664822 0.8500000238 0
-0.1193412244 -0.1440028697 0.8520000577 0
-0.1174952686 -0.1441718787 0.8530000448 0
-0.1159154773 -0.1446789354 0.8560000658 0
-0.114188619 -0.1450169683 0.8580000401 0
-0.1124524623 -0.1453550011 0.8600000143 0
-0.1104501262 -0.1453550011 0.8600000143 0
-0.108195588 -0.1450169683 0.8580000401 0
-0.1016069725 -0.1441718787 0.8530000448 0
-0.09950415045 -0.1440028697 0.8520000577 0
-0.01461020298 -0.1157769561 0.685000062 0
-0.009639084339 -0.1135797277 0.6720000505 0
-0.008062453941 -0.1134106964 0.6710000038 0
-0.006480792537 -0.113072671 0.6690000296 0
-0.004901085515 -0.1125656143 0.6660000086 0
-0.003345409641 -0.1123965979 0.6650000215 0
-0.001791688032 -0.112058565 0.6630000472 0
-0.0002476536029 -0.1118895486 0.6620000601 0
0.001289770007 -0.1115515083 0.6600000262 0
0.00282644527 -0.1115515083 0.6600000262 0
0.004356510006 -0.1113824993 0.6590000391 0
0.005872978829 -0.1110444516 0.6570000052 0
0.007380134892 -0.1107064262 0.655000031 0
0.008877977729 -0.1103683934 0.6530000567 0
0.01038243063 -0.1101993695 0.65200001 0
0.01186397485 -0.1098613366 0.6500000358 0
0.01335678808 -0.1096923202 0.6490000486 0
0.01484494191 -0.1095232964 0.6480000019 0
0.01632844098 -0.1093542799 0.6470000148 0
0.01783484779 -0.1093542799 0.6470000148 0
0.01934125647 -0.1093542799 0.6470000148 0
0.02087988518 -0.1095232964 0.6480000019 0
0.0223886203 -0.1095232964 0.6480000019 0
0.02393423766 -0.1096923202 0.6490000486 0
0.0254845079 -0.1098613366 0.6500000358 0
0.02699789964 -0.1098613366 0.6500000358 0
0.02864288352 -0.1103683934 0.6530000567 0
0.03025564365 -0.1107064262 0.655000031 0
0.03197475895 -0.1113824993 0.6590000391 0
0.03355995566 -0.1115515083 0.6600000262 0
0.03525615856 -0.112058565 0.6630000472 0
0.0368553251 -0.1122275814 0.6640000343 0
0.0385748148 -0.1127346382 0.6670000553 0
0.0423056595 -0.1144248098 0.6770000458 0
0.05914086103 -0.1105374098 0.6540000439 0
0.06066356599 -0.1105374098 0.6540000439 0
0.06218627468 -0.1105374098 0.6540000439 0
0.06370897591 -0.1105374098 0.6540000439 0
0.06523168087 -0.1105374098 0.6540000439 0
0.09915862978 -0.1362280548 0.8060000539 0
0.1010352373 -0.1362280548 0.8060000539 0
0.103167206 -0.1365660876 0.8080000281 0
0.105308488 -0.1369041353 0.810000062 0
0.1074590907 -0.1372421682 0.8120000362 0
0.1094843298 -0.1374111772 0.8130000234 0
0.1116512269 -0.1377492249 0.8150000572 0
0.1136881188 -0.1379182339 0.8160000443 0
0.1158713028 -0.1382562667 0.8180000186 0
0.1180638149 -0.1385942996 0.8200000525 0
0.1202656254 -0.1389323324 0.8220000267 0
0.1177764609 -0.1127346382 0.6670000553 0
0.1191505268 -0.1125656143 0.6660000086 0
0.1205199435 -0.1123965979 0.6650000215 0
0.1218846962 -0.1122275814 0.6640000343 0
0.1234306917 -0.1122275814 0.6640000343 0
0.1253531128 -0.1125656143 0.6660000086 0
0.1272848547 -0.1129036546 0.6680000424 0
0.1294187605 -0.1134106964 0.6710000038 0
0.1313714683 -0.1137487367 0.6730000377 0
0.1333334744 -0.1140867695 0.6750000119 0
0.1353047937 -0.1144248098 0.6770000458 0
0.1372854263 -0.1147628427 0.67900002 0
0.139275372 -0.1151008829 0.6810000539 0
0.1412746161 -0.1154389158 0.6830000281 0
0.1426556855 -0.1152698994 0.682000041 0
0.144032076 -0.1151008829 0.6810000539 0
0.1454038173 -0.1149318591 0.6800000072 0
0.1467708945 -0.1147628427 0.67900002 0
0.1481333375 -0.1145938262 0.6780000329 0
0.1494911015 -0.1144248098 0.6770000458 0
0.1506210566 -0.1140867695 0.6750000119 0
0.1519671977 -0.1139177531 0.6740000248 0
0.1530808806 -0.1135797277 0.6720000505 0
0.1541852355 -0.11324168 0.6700000167 0
0.155280292 -0.1129036546 0.6680000424 0
0.1566008031 -0.1127346382 0.6670000553 0
0.1579166502 -0.1125656143 0.6660000086 0
0.1589884162 -0.1122275814 0.6640000343 0
0.1602926552 -0.112058565 0.6630000472 0
0.1615922153 -0.1118895486 0.6620000601 0
0.1628871113 -0.1117205247 0.6610000134 0
0.1639286131 -0.1113824993 0.6590000391 0
0.1654629558 -0.1113824993 0.6590000391 0
0.1669972986 -0.1113824993 0.6590000391 0
0.1682759225 -0.1112134829 0.658000052 0
0.1698079258 -0.1112134829 0.658000052 0
0.1733974218 -0.1115515083 0.6600000262 0
0.1749340892 -0.1115515083 0.6600000262 0
0.1764707714 -0.1115515083 0.6600000262 0
0.201429382 -0.1171290874 0.6930000186 0
0.202749908 -0.116960071 0.6920000315 0
0.2040657848 -0.1167910546 0.6910000443 0
0.2053769827 -0.1166220382 0.6900000572 0
0.2069835067 -0.1166220382 0.6900000572 0
0.207985431 -0.1162839979 0.6880000234 0
0.209587276 -0.1162839979 0.6880000234 0
0.2108822018 -0.1161149815 0.6870000362 0
0.211863175 -0.1157769561 0.685000062 0
0.2134580463 -0.1157769561 0.685000062 0
0.2147389799 -0.1156079248 0.6840000153 0
0.2160152644 -0.1154389158 0.6830000281 0
0.2176054716 -0.1154389158 0.6830000281 0
0.2191957086 -0.1154389158 0.6830000281 0
0.2204626948 -0.1152698994 0.682000041 0
0.2220505774 -0.1152698994 0.682000041 0
0.2236384749 -0.1152698994 0.682000041 0
0.2252263874 -0.1152698994 0.682000041 0
0.2264817059 -0.1151008829 0.6810000539 0
-0.1818434596 -0.05967471004 0.3580000103 0
-0.1810099334 -0.05967471004 0.3580000103 0
-0.1454745382 -0.05717437342 0.3430000246 0
-0.1442541182 -0.05700768158 0.3420000076 0
-0.1434578449 -0.05700768158 0.3420000076 0
-0.1426615715 -0.05700768158 0.3420000076 0
-0.1418652833 -0.05700768158 0.3420000076 0
-0.1410690248 -0.05700768158 0.3420000076 0
-0.1402727365 -0.05700768158 0.3420000076 0
-0.1394764632 -0.05700768158 0.3420000076 0
-0.1684392393 -0.1228498966 0.7370000482 0
-0.1669494808 -0.1230165809 0.7380000353 0
-0.165455088 -0.1231832728 0.7390000224 0
-0.1637344807 -0.1231832728 0.7390000224 0
-0.1622330993 -0.1233499572 0.7400000095 0
-0.1607270837 -0.1235166565 0.7410000563 0
-0.1594309658 -0.1238500252 0.7430000305 0
-0.1579132825 -0.1240167171 0.7440000176 0
-0.156390965 -0.1241834089 0.7450000644 0
-0.1548639685 -0.1243501008 0.7460000515 0
-0.1533323228 -0.1245167851 0.7470000386 0
-0.1517960131 -0.1246834695 0.7480000257 0
-0.1506562829 -0.1251835376 0.7510000467 0
-0.1491060108 -0.1253502369 0.7520000339 0
-0.1477470249 -0.1256836057 0.7540000081 0
-0.1465723664 -0.1261836737 0.7570000291 0
-0.1450011432 -0.1263503581 0.7580000162 0
-0.1438031942 -0.1268504262 0.7610000372 0
-0.1424046308 -0.1271838099 0.7630000114 0
-0.1411810666 -0.1276838779 0.7660000324 0
-0.1397615522 -0.1280172467 0.7680000067 0
-0.1381530762 -0.128183946 0.7690000534 0
-0.136539951 -0.1283506304 0.7700000405 0
-0.135097146 -0.1286840141 0.7720000148 0
-0.1338177025 -0.1291840822 0.7750000358 0
-0.1326946318 -0.1298508346 0.7790000439 0
-0.1315529495 -0.130517602 0.783000052 0
-0.130723983 -0.1315177232 0.7890000343 0
-0.1297037303 -0.132351175 0.7940000296 0
-0.128660202 -0.1331846118 0.7990000248 0
-0.1275933832 -0.1340180635 0.80400002 0
-0.1268160194 -0.1351848841 0.8110000491 0
-0.1263141483 -0.1366850883 0.8200000525 0
-0.1256186515 -0.1380186081 0.8280000687 0
-0.123674728 -0.1401855648 0.8410000205 0
-0.1225850061 -0.1411857009 0.8470000625 0
-0.1213249415 -0.1420191526 0.8520000577 0
-0.1197614372 -0.1425192058 0.8550000191 0
-0.1179085001 -0.1426859051 0.8560000658 0
-0.1163217202 -0.1431859583 0.8590000272 0
-0.1147209704 -0.1436860412 0.8620000482 0
-0.1127139851 -0.1436860412 0.8620000482 0
-0.1108354256 -0.1438527256 0.8630000353 0
-0.1086999923 -0.1436860412 0.8620000482 0
-0.1064454541 -0.1433526576 0.8600000143 0
-0.1042002365 -0.1430192739 0.8580000401 0
-0.01463153213 -0.1143487468 0.6860000491 0
-0.01293931901 -0.1135153025 0.6810000539 0
-0.009682115167 -0.1125151664 0.6750000119 0
-0.008098500781 -0.1123484746 0.6740000248 0
-0.006500166841 -0.1118484065 0.6710000038 0
-0.004915803671 -0.1113483459 0.6680000424 0
-0.003355471184 -0.111181654 0.6670000553 0
-0.001799795078 -0.1110149622 0.6660000086 0
-0.0002484018041 -0.110681586 0.6640000343 0
0.001293678535 -0.1103482097 0.6620000601 0
0.002835010411 -0.1103482097 0.6620000601 0
0.004363120999 -0.1100148261 0.6600000262 0
0.005890856963 -0.1098481417 0.6590000391 0
0.007402669173 -0.109514758 0.6570000052 0
0.01039835531 -0.108848013 0.6530000567 0
0.01188222691 -0.1085146293 0.6510000229 0
0.01335678808 -0.1081812531 0.6490000486 0
0.01484494191 -0.1080145538 0.6480000019 0
0.01632844098 -0.1078478694 0.6470000148 0
0.01783484779 -0.1078478694 0.6470000148 0
0.01931136288 -0.1076811776 0.6460000277 0
0.02081544138 -0.1076811776 0.6460000277 0
0.0223540701 -0.1078478694 0.6470000148 0
0.02386047877 -0.1078478694 0.6470000148 0
0.02536688559 -0.1078478694 0.6470000148 0
0.02691482753 -0.1080145538 0.6480000019 0
0.0284674298 -0.1081812531 0.6490000486 0
0.03011706658 -0.1086813137 0.65200001 0
0.03187771887 -0.109514758 0.6570000052 0
0.03340740874 -0.109514758 0.6570000052 0
0.03509663045 -0.1100148261 0.6600000262 0
0.03674431518 -0.1103482097 0.6620000601 0
0.03851697594 -0.1110149622 0.6660000086 0
0.0423056595 -0.1128485501 0.6770000458 0
0.04420600832 -0.1136819944 0.682000041 0
0.05270915106 -0.1115150303 0.6690000296 0
0.05923129246 -0.1091813818 0.655000031 0
0.060756322 -0.1091813818 0.655000031 0
0.06228135899 -0.1091813818 0.655000031 0
0.06380639225 -0.1091813818 0.655000031 0
0.06533142179 -0.1091813818 0.655000031 0
0.09903560579 -0.1341847628 0.8050000668 0
0.1010352373 -0.1343514472 0.8060000539 0
0.1030395254 -0.1345181316 0.807000041 0
0.105308488 -0.1350181997 0.810000062 0
0.1073267534 -0.1351848841 0.8110000491 0
0.1094843298 -0.1355182678 0.8130000234 0
0.1116512269 -0.1358516514 0.8150000572 0
0.1136881188 -0.1360183358 0.8160000443 0
0.1158713028 -0.1363517046 0.8180000186 0
0.1180638149 -0.1366850883 0.8200000525 0
0.1199762523 -0.1103482097 0.6620000601 0
0.1211504489 -0.1100148261 0.6600000262 0
0.1226871312 -0.1100148261 0.6600000262 0
0.1249766797 -0.110681586 0.6640000343 0
0.1269037575 -0.1110149622 0.6660000086 0
0.1290330142 -0.1115150303 0.6690000296 0
0.1311762631 -0.1120151058 0.6720000505 0
0.1333334744 -0.1125151664 0.6750000119 0
0.1353047937 -0.1128485501 0.6770000458 0
0.1372854263 -0.1131819189 0.67900002 0
0.139275372 -0.1135153025 0.6810000539 0
0.1414814591 -0.1140153632 0.6840000153 0
0.1428648531 -0.1138486788 0.6830000281 0
0.1444550753 -0.1138486788 0.6830000281 0
0.1458314806 -0.1136819944 0.682000041 0
0.1474193633 -0.1136819944 0.682000041 0
0.1487887949 -0.1135153025 0.6810000539 0
0.1499327272 -0.1131819189 0.67900002 0
0.1512904912 -0.1130152345 0.6780000329 0
0.152643621 -0.1128485501 0.6770000458 0
0.1537642628 -0.1125151664 0.6750000119 0
0.1548756212 -0.1121817902 0.6730000377 0
0.1562101096 -0.1120151058 0.6720000505 0
0.1573051512 -0.1116817147 0.6700000167 0
0.1583908796 -0.1113483459 0.6680000424 0
0.1597067416 -0.111181654 0.6670000553 0
0.1610179543 -0.1110149622 0.6660000086 0
0.1620804071 -0.110681586 0.6640000343 0
0.1631335467 -0.1103482097 0.6620000601 0
0.1644261181 -0.1101815179 0.6610000134 0
0.1657140255 -0.1100148261 0.6600000262 0
0.1669972986 -0.1098481417 0.6590000391 0
0.1682759225 -0.1096814573 0.658000052 0
0.1695498526 -0.109514758 0.6570000052 0
0.1716003418 -0.1098481417 0.6590000391 0
0.1733974218 -0.1100148261 0.6600000262 0
0.1800881922 -0.1103482097 0.6620000601 0
0.202749908 -0.115348883 0.6920000315 0
0.204361096 -0.115348883 0.6920000315 0
0.2053769827 -0.1150155067 0.6900000572 0
0.2069835067 -0.1150155067 0.6900000572 0
0.207985431 -0.1146821231 0.6880000234 0
0.2092826515 -0.1145154387 0.6870000362 0
0.2102682889 -0.1141820624 0.685000062 0
0.211863175 -0.1141820624 0.685000062 0
0.2131464183 -0.1140153632 0.6840000153 0
0.2144250274 -0.1138486788 0.6830000281 0
0.2160152644 -0.1138486788 0.6830000281 0
0.2172868848 -0.1136819944 0.682000041 0
0.2188747823 -0.1136819944 0.682000041 0
0.2204626948 -0.1136819944 0.682000041 0
0.2220505774 -0.1136819944 0.682000041 0
0.2233105749 -0.1135153025 0.6810000539 0
0.2248961478 -0.1135153025 0.6810000539 0
0.2264817059 -0.1135153025 0.6810000539 0
-0.1813355237 -0.05867682397 0.3570000231 0
-0.1810099334 -0.05884118006 0.3580000103 0
-0.1801763922 -0.05884118006 0.3580000103 0
-0.1470717341 -0.05637577176 0.3430000246 0
-0.1462731361 -0.05637577176 0.3430000246 0
-0.1454745382 -0.05637577176 0.3430000246 0
-0.1446759254 -0.05637577176 0.3430000246 0
-0.1434578449 -0.05621140823 0.3420000076 0
-0.1426615715 -0.05621140823 0.3420000076 0
-0.1418652833 -0.05621140823 0.3420000076 0
-0.1410690248 -0.05621140823 0.3420000076 0
-0.1402727365 -0.05621140823 0.3420000076 0
-0.1394764632 -0.05621140823 0.3420000076 0
-0.1386801898 -0.05621140823 0.3420000076 0
-0.1667232662 -0.1211339459 0.7370000482 0
-0.165231213 -0.1212983057 0.7380000353 0
-0.1637344807 -0.121462658 0.7390000224 0
-0.1622330993 -0.1216270179 0.7400000095 0
-0.1607270837 -0.1217913851 0.7410000563 0
-0.1594309658 -0.1221201047 0.7430000305 0
-0.1579132825 -0.1222844645 0.7440000176 0
-0.1561810225 -0.1222844645 0.7440000176 0
-0.1548639685 -0.1226131916 0.7460000515 0
-0.1533323228 -0.1227775514 0.7470000386 0
-0.1517960131 -0.1229419112 0.7480000257 0
-0.1504556835 -0.1232706383 0.7500000596 0
-0.1491060108 -0.1235993579 0.7520000339 0
-0.1477470249 -0.1239280701 0.7540000081 0
-0.1465723664 -0.1244211569 0.7570000291 0
-0.1451924443 -0.124749884 0.7590000629 0
-0.1439921558 -0.1252429634 0.7620000243 0
-0.1424046308 -0.1254073232 0.7630000114 0
-0.1411810666 -0.1259004027 0.7660000324 0
-0.1397615522 -0.1262291223 0.7680000067 0
-0.1381530762 -0.126393497 0.7690000534 0
-0.1367172599 -0.1267222166 0.7710000277 0
-0.1352721453 -0.1270509362 0.7730000615 0
-0.1338177025 -0.1273796558 0.7750000358 0
-0.1326946318 -0.1280370951 0.7790000439 0
-0.1315529495 -0.1286945492 0.783000052 0
-0.130723983 -0.1296807081 0.7890000343 0
-0.1295403689 -0.1303381473 0.7930000424 0
-0.1284991652 -0.1311599463 0.7980000377 0
-0.1274346858 -0.1319817603 0.8030000329 0
-0.1263469011 -0.1328035593 0.8080000281 0
-0.1256979853 -0.1341184527 0.8160000443 0
-0.1225850061 -0.1392136365 0.8470000625 0
-0.1214673445 -0.1401997954 0.8530000448 0
-0.1203217283 -0.1411859691 0.8590000272 0
-0.1185972169 -0.1415146887 0.861000061 0
-0.1169987991 -0.1420077682 0.8640000224 0
-0.1153864041 -0.1425008476 0.8670000434 0
-0.1137600541 -0.1429939419 0.8700000644 0
-0.1118628681 -0.1431583017 0.8710000515 0
-0.1097088158 -0.1429939419 0.8700000644 0
-0.1076831967 -0.1429939419 0.8700000644 0
-0.1055361331 -0.1428295672 0.8690000176 0
-0.1035128459 -0.1428295672 0.8690000176 0
-0.01465286035 -0.1129159033 0.6870000362 0
-0.01297731977 -0.1122584566 0.6830000281 0
-0.009710803628 -0.1112722903 0.6770000458 0
-0.008110515773 -0.1109435633 0.6750000119 0
-0.006519542076 -0.1106148511 0.6730000377 0
-0.004937880207 -0.1102861241 0.6710000038 0
-0.003360501956 -0.1097930446 0.6680000424 0
-0.001802497543 -0.1096286848 0.6670000553 0
-0.0002487758757 -0.1092999578 0.6650000215 0
0.00129758683 -0.1091355979 0.6640000343 0
0.002839292865 -0.1089712456 0.6630000472 0
0.00437634252 -0.1088068858 0.6620000601 0
0.005899796262 -0.1084781587 0.6600000262 0
0.007413937245 -0.1081494391 0.658000052 0
0.00891876407 -0.107820712 0.6560000181 0
0.01041427907 -0.1074919924 0.6540000439 0
0.01190047897 -0.1071632653 0.65200001 0
0.01337736845 -0.1068345457 0.6500000358 0
0.01486785151 -0.1066701934 0.6490000486 0
0.01632844098 -0.1063414663 0.6470000148 0
0.01780728437 -0.1061771065 0.6460000277 0
0.01931136288 -0.1061771065 0.6460000277 0
0.02078321949 -0.1060127467 0.6450000405 0
0.02225041948 -0.1058483869 0.6440000534 0
0.0237498451 -0.1058483869 0.6440000534 0
0.02528847381 -0.1060127467 0.6450000405 0
0.02683175914 -0.1061771065 0.6460000277 0
0.02837970108 -0.1063414663 0.6470000148 0
0.02997849323 -0.1066701934 0.6490000486 0
0.0317321606 -0.1074919924 0.6540000439 0
0.03330571204 -0.1076563522 0.655000031 0
0.03499027714 -0.1081494391 0.658000052 0
0.03668880835 -0.1086425185 0.6610000134 0
0.03840131313 -0.1091355979 0.6640000343 0
0.04224317148 -0.111107938 0.6760000587 0
0.05153381824 -0.1107792109 0.6740000248 0
0.05941214785 -0.1079850718 0.6570000052 0
0.060849078 -0.107820712 0.6560000181 0
0.0623764433 -0.107820712 0.6560000181 0
0.06390380114 -0.107820712 0.6560000181 0
0.06533142179 -0.1076563522 0.655000031 0
0.09891257435 -0.1321461201 0.80400002 0
0.1010352373 -0.1324748397 0.8060000539 0
0.1030395254 -0.1326391995 0.807000041 0
0.1051784754 -0.1329679191 0.8090000153 0
0.1073267534 -0.1332966536 0.8110000491 0
0.109349668 -0.1334609985 0.8120000362 0
0.1116512269 -0.1339540929 0.8150000572 0
0.1136881188 -0.1341184527 0.8160000443 0
0.1158713028 -0.1344471723 0.8180000186 0
0.11820779 -0.1349402517 0.8210000396 0
0.1204119325 -0.1352689713 0.8230000138 0
0.1244120225 -0.1086425185 0.6610000134 0
0.1265226603 -0.1091355979 0.6640000343 0
0.1288401484 -0.1097930446 0.6680000424 0
0.1311762631 -0.1104504913 0.6720000505 0
0.1333334744 -0.1109435633 0.6750000119 0
0.1355046481 -0.1114366502 0.6780000329 0
0.1376897991 -0.111929737 0.6810000539 0
0.139684394 -0.1122584566 0.6830000281 0
0.1418951601 -0.1127515435 0.6860000491 0
0.1434923708 -0.1127515435 0.6860000491 0
0.1450895816 -0.1127515435 0.6860000491 0
0.1464729607 -0.1125871837 0.685000062 0
0.1478516757 -0.1124228165 0.6840000153 0
0.1492257565 -0.1122584566 0.6830000281 0
0.1505951732 -0.1120940968 0.682000041 0
0.1519599259 -0.111929737 0.6810000539 0
0.1530945599 -0.11160101 0.67900002 0
0.1542198658 -0.1112722903 0.6770000458 0
0.1555660069 -0.111107938 0.6760000587 0
0.156907469 -0.1109435633 0.6750000119 0
0.1580094993 -0.1106148511 0.6730000377 0
0.1591022164 -0.1102861241 0.6710000038 0
0.1601856202 -0.1099574044 0.6690000296 0
0.161501497 -0.1097930446 0.6680000424 0
0.1628126949 -0.1096286848 0.6670000553 0
0.1638728082 -0.1092999578 0.6650000215 0
0.1651723832 -0.1091355979 0.6640000343 0
0.1662162095 -0.1088068858 0.6620000601 0
0.1672507077 -0.1084781587 0.6600000262 0
0.170065999 -0.1083137989 0.6590000391 0
0.1716003418 -0.1083137989 0.6590000391 0
0.1790862828 -0.1091355979 0.6640000343 0
0.2018709332 -0.1132446155 0.6890000105 0
0.2031798214 -0.1130802557 0.6880000234 0
0.2047816813 -0.1130802557 0.6880000234 0
0.2057836056 -0.1127515435 0.6860000491 0
0.2073808312 -0.1127515435 0.6860000491 0
0.2086733878 -0.1125871837 0.685000062 0
0.2096543461 -0.1122584566 0.6830000281 0
0.2112445831 -0.1122584566 0.6830000281 0
0.2128347903 -0.1122584566 0.6830000281 0
0.2144250274 -0.1122584566 0.6830000281 0
0.2160152644 -0.1122584566 0.6830000281 0
0.2169682831 -0.111929737 0.6810000539 0
0.2188747823 -0.1120940968 0.682000041 0
0.220139429 -0.111929737 0.6810000539 0
0.2220505774 -0.1120940968 0.682000041 0
0.2236384749 -0.1120940968 0.682000041 0
0.2248961478 -0.111929737 0.6810000539 0
-0.1813355237 -0.0578456223 0.3570000231 0
-0.180504337 -0.0578456223 0.3570000231 0
-0.1454745382 -0.05557716638 0.3430000246 0
-0.165231213 -0.119580023 0.7380000353 0
-0.1637344807 -0.1197420508 0.7390000224 0
-0.1622330993 -0.119904086 0.7400000095 0
-0.1607270837 -0.1200661212 0.7410000563 0
-0.1592163891 -0.1202281564 0.7420000434 0
-0.1577010453 -0.1203901842 0.7430000305 0
-0.1561810225 -0.1205522195 0.7440000176 0
-0.1548639685 -0.1208762899 0.7460000515 0
-0.1533323228 -0.1210383177 0.7470000386 0
-0.1517960131 -0.1212003455 0.7480000257 0
-0.1504556835 -0.1215244159 0.7500000596 0
-0.1491060108 -0.1218484789 0.7520000339 0
-0.1475510746 -0.1220105067 0.753000021 0
-0.1463787407 -0.1224966124 0.756000042 0
-0.1451924443 -0.1229827106 0.7590000629 0
-0.1439921558 -0.1234688014 0.7620000243 0
-0.1425912678 -0.1237928718 0.7640000582 0
-0.1411810666 -0.1241169348 0.7660000324 0
-0.1397615522 -0.1244409978 0.7680000067 0
-0.1383327246 -0.1247650683 0.7700000405 0
-0.1368945837 -0.1250891238 0.7720000148 0
-0.1352721453 -0.125251174 0.7730000615 0
-0.1339903623 -0.1257372648 0.7760000229 0
-0.132864967 -0.1263853908 0.780000031 0
-0.1315529495 -0.1268714964 0.783000052 0
-0.1305583119 -0.1276816577 0.7880000472 0
-0.1293770224 -0.1283297837 0.7920000553 0
-0.1281771213 -0.1289779097 0.7960000634 0
-0.1269585937 -0.1296260357 0.8000000119 0
-0.1258777976 -0.1304362118 0.8050000668 0
-0.1252358556 -0.1317324638 0.8130000234 0
-0.1225850061 -0.1372415721 0.8470000625 0
-0.1218945459 -0.1386998743 0.8560000658 0
-0.1206018776 -0.1395100355 0.861000061 0
-0.119010441 -0.1399961263 0.8640000224 0
-0.1176758707 -0.1408062875 0.8690000176 0
-0.1159187555 -0.141130358 0.8710000515 0
-0.1141523272 -0.1414544135 0.8730000257 0
-0.1123765931 -0.141778484 0.8750000596 0
-0.1100871116 -0.1414544135 0.8730000257 0
-0.1081782877 -0.1416164488 0.8740000129 0
-0.1061433628 -0.1416164488 0.8740000129 0
-0.1039893106 -0.1414544135 0.8730000257 0
-0.01467418857 -0.1114783958 0.6880000234 0
-0.01299631968 -0.1108302623 0.6840000153 0
-0.009739491157 -0.1100201011 0.67900002 0
-0.008134547621 -0.1096960381 0.6770000458 0
-0.006538916379 -0.1093719676 0.6750000119 0
-0.004937880207 -0.1087238416 0.6710000038 0
-0.003365532495 -0.1083997786 0.6690000296 0
-0.001805200009 -0.1082377434 0.6680000424 0
-0.0002491499763 -0.1079136729 0.6660000086 0
0.001299540978 -0.1077516451 0.6650000215 0
0.002843575319 -0.1075896174 0.6640000343 0
0.004382953513 -0.1074275821 0.6630000472 0
0.005908735096 -0.1071035117 0.6610000134 0
0.007436471526 -0.1069414839 0.6600000262 0
0.008945955895 -0.1066174209 0.658000052 0
0.01043020282 -0.1061313227 0.655000031 0
0.01191873197 -0.1058072597 0.6530000567 0
0.01337736845 -0.1053211614 0.6500000358 0
0.01486785151 -0.1051591262 0.6490000486 0
0.01632844098 -0.1048350558 0.6470000148 0
0.01780728437 -0.104673028 0.6460000277 0
0.01931136288 -0.104673028 0.6460000277 0
0.02075099759 -0.104348965 0.6440000534 0
0.02225041948 -0.104348965 0.6440000534 0
0.02371296473 -0.1041869298 0.6430000067 0
0.02521005832 -0.1041869298 0.6430000067 0
0.02674868889 -0.104348965 0.6440000534 0
0.02829197422 -0.1045110002 0.6450000405 0
0.02988610789 -0.1048350558 0.6470000148 0
0.03163511679 -0.105645217 0.65200001 0
0.03325486556 -0.1059692949 0.6540000439 0
0.03493709862 -0.1064553857 0.6570000052 0
0.03663330525 -0.1069414839 0.6600000262 0
0.03834348172 -0.1074275821 0.6630000472 0
0.05805866048 -0.1067794561 0.6590000391 0
0.05941214785 -0.1064553857 0.6570000052 0
0.060941834 -0.1064553857 0.6570000052 0
0.06247152761 -0.1064553857 0.6570000052 0
0.06400121748 -0.1064553857 0.6570000052 0
0.09891257435 -0.1302741617 0.80400002 0
0.1009098887 -0.1304362118 0.8050000668 0
0.1029118448 -0.1305982471 0.8060000539 0
0.1050484627 -0.1309223026 0.8080000281 0
0.1070620716 -0.1310843378 0.8090000153 0
0.109349668 -0.1315704286 0.8120000362 0
0.1115142256 -0.1318944991 0.8140000105 0
0.1136881188 -0.1322185695 0.8160000443 0
0.11820779 -0.1330287308 0.8210000396 0
0.1240355894 -0.1067794561 0.6590000391 0
0.126141578 -0.1072655544 0.6620000601 0
0.1286472827 -0.1080757156 0.6670000553 0
0.1309810579 -0.1087238416 0.6710000038 0
0.1333334744 -0.1093719676 0.6750000119 0
0.1357045025 -0.1100201011 0.67900002 0
0.1378919929 -0.1105061993 0.682000041 0
0.1400934309 -0.110992305 0.685000062 0
0.1425156891 -0.1116404235 0.6890000105 0
0.144329071 -0.1118024662 0.6900000572 0
0.1457240731 -0.1116404235 0.6890000105 0
0.1471144408 -0.1114783958 0.6880000234 0
0.1485001594 -0.1113163605 0.6870000362 0
0.1498812139 -0.1111543328 0.6860000491 0
0.1512576193 -0.110992305 0.685000062 0
0.1524062008 -0.1106682345 0.6830000281 0
0.1537709683 -0.1105061993 0.682000041 0
0.1549032629 -0.1101821288 0.6800000072 0
0.1562563777 -0.1100201011 0.67900002 0
0.1573723853 -0.1096960381 0.6770000458 0
0.1584790647 -0.1093719676 0.6750000119 0
0.1600506604 -0.1093719676 0.6750000119 0
0.1611433923 -0.1090479121 0.6730000377 0
0.1622267962 -0.1087238416 0.6710000038 0
0.1635449827 -0.1085618064 0.6700000167 0
0.2017032206 -0.1106682345 0.6830000281 0
0.2032934427 -0.1106682345 0.6830000281 0
0.2048836648 -0.1106682345 0.6830000281 0
0.2058693022 -0.1103441715 0.6810000539 0
0.2074548602 -0.1103441715 0.6810000539 0
0.2090404332 -0.1103441715 0.6810000539 0
0.210626021 -0.1103441715 0.6810000539 0
0.2125231773 -0.1105061993 0.682000041 0
0.2141110897 -0.1105061993 0.682000041 0
0.215382725 -0.1103441715 0.6810000539 0
0.2169682831 -0.1103441715 0.6810000539 0
0.218553856 -0.1103441715 0.6810000539 0
0.220139429 -0.1103441715 0.6810000539 0
0.221724987 -0.1103441715 0.6810000539 0
-0.1466995925 -0.05493826047 0.3440000117 0
-0.1454745382 -0.05477855727 0.3430000246 0
-0.1637344807 -0.118021436 0.7390000224 0
-0.1622330993 -0.1181811392 0.7400000095 0
-0.1607270837 -0.1183408499 0.7410000563 0
-0.1592163891 -0.1185005531 0.7420000434 0
-0.1577010453 -0.1186602563 0.7430000305 0
-0.1561810225 -0.1188199595 0.7440000176 0
-0.1546563804 -0.1189796701 0.7450000644 0
-0.1533323228 -0.119299069 0.7470000386 0
-0.1517960131 -0.1194587722 0.7480000257 0
-0.1502550542 -0.1196184754 0.7490000129 0
-0.1491060108 -0.1200975925 0.7520000339 0
-0.1475510746 -0.1202572957 0.753000021 0
-0.1463787407 -0.1207364127 0.756000042 0
-0.1451924443 -0.1212155297 0.7590000629 0
-0.1439921558 -0.1216946319 0.7620000243 0
-0.1425912678 -0.1220140457 0.7640000582 0
-0.1413653791 -0.1224931553 0.7670000196 0
-0.1397615522 -0.1226528585 0.7680000067 0
-0.138512373 -0.1231319755 0.7710000277 0
-0.1368945837 -0.1232916713 0.7720000148 0
-0.1354471445 -0.1236110851 0.7740000486 0
-0.1341630369 -0.1240901947 0.77700001 0
-0.132864967 -0.1245693117 0.780000031 0
-0.1317209601 -0.1252081245 0.7840000391 0
-0.1305583119 -0.1258469522 0.7880000472 0
-0.129213661 -0.1263260543 0.7910000086 0
-0.1278550625 -0.1268051714 0.7940000296 0
-0.126641199 -0.1274439842 0.7980000377 0
-0.125565052 -0.1282425076 0.8030000329 0
-0.1244656444 -0.129041031 0.8080000281 0
-0.119010441 -0.1379844695 0.8640000224 0
-0.1176758707 -0.138782993 0.8690000176 0
-0.1161849201 -0.1394218057 0.8730000257 0
-0.11441385 -0.1397412121 0.8750000596 0
-0.1125050187 -0.1399009228 0.8760000467 0
-0.1104654223 -0.1399009228 0.8760000467 0
-0.1084258407 -0.1399009228 0.8760000467 0
-0.1063862592 -0.1399009228 0.8760000467 0
-0.01469551772 -0.1100362241 0.6890000105 0
-0.01301532146 -0.1093974113 0.685000062 0
-0.01135374978 -0.1087585911 0.6810000539 0
-0.009753834456 -0.1085988805 0.6800000072 0
-0.008158578537 -0.1084391773 0.67900002 0
-0.006548603997 -0.1079600751 0.6760000587 0
-0.004952598363 -0.1074809581 0.6730000377 0
-0.003370563267 -0.1070018411 0.6700000167 0
-0.001807902358 -0.1068421379 0.6690000296 0
-0.000249524106 -0.1065227389 0.6670000553 0
0.001301495242 -0.1063630208 0.6660000086 0
0.002852140227 -0.1063630208 0.6660000086 0
0.004389564041 -0.1060436219 0.6640000343 0
0.005917674396 -0.1057242155 0.6620000601 0
0.007436471526 -0.1054048017 0.6600000262 0
0.008959551342 -0.1052450985 0.6590000391 0
0.01046205033 -0.1049256846 0.6570000052 0
0.01195523608 -0.1046062782 0.655000031 0
0.01341852918 -0.1041271612 0.65200001 0
0.01489076018 -0.1038077623 0.6500000358 0
0.01637891494 -0.1036480591 0.6490000486 0
0.01783484779 -0.1033286452 0.6470000148 0
0.01931136288 -0.103168942 0.6460000277 0
0.02075099759 -0.1028495356 0.6440000534 0
0.02221586742 -0.102689825 0.6430000067 0
0.02367608622 -0.1025301218 0.6420000196 0
0.0251708515 -0.1025301218 0.6420000196 0
0.02666561678 -0.1025301218 0.6420000196 0
0.02824811079 -0.1028495356 0.6440000534 0
0.02983991615 -0.103168942 0.6460000277 0
0.0315865986 -0.1039674655 0.6510000229 0
0.03320401534 -0.1042868793 0.6530000567 0
0.0348839201 -0.1047659814 0.6560000181 0
0.03657779843 -0.1052450985 0.6590000391 0
0.03828564659 -0.1057242155 0.6620000601 0
0.05814675987 -0.1054048017 0.6600000262 0
0.05959301069 -0.1052450985 0.6590000391 0
0.06112735346 -0.1052450985 0.6590000391 0
0.06256661564 -0.1050853953 0.658000052 0
0.06409863383 -0.1050853953 0.658000052 0
0.09891257435 -0.1284022033 0.80400002 0
0.1007845253 -0.1284022033 0.80400002 0
0.1027841642 -0.1285619289 0.8050000668 0
0.1049184576 -0.1288813204 0.807000041 0
0.1070620716 -0.1292007267 0.8090000153 0
0.109349668 -0.1296798438 0.8120000362 0
0.1116512269 -0.1301589608 0.8150000572 0
0.1136881188 -0.1303186715 0.8160000443 0
0.1158713028 -0.130638063 0.8180000186 0
0.11820779 -0.13111718 0.8210000396 0
0.120558247 -0.131596297 0.8240000606 0
0.1183451489 -0.1042868793 0.6530000567 0
0.1213859096 -0.1042868793 0.6530000567 0
0.1236591488 -0.1049256846 0.6570000052 0
0.126141578 -0.1057242155 0.6620000601 0
0.1286472827 -0.1065227389 0.6670000553 0
0.1309810579 -0.1071615443 0.6710000038 0
0.133728534 -0.1081197783 0.6770000458 0
0.1361042261 -0.1087585911 0.6810000539 0
0.1382963657 -0.1092377007 0.6840000153 0
0.1407069713 -0.1098765209 0.6880000234 0
0.1431362182 -0.1105153412 0.6920000315 0
0.1447474062 -0.1105153412 0.6920000315 0
0.1463585794 -0.1105153412 0.6920000315 0
0.1479697675 -0.1105153412 0.6920000315 0
0.1491486281 -0.1101959348 0.6900000572 0
0.150755167 -0.1101959348 0.6900000572 0
0.1519200504 -0.1098765209 0.6880000234 0
0.1532987803 -0.1097168177 0.6870000362 0
0.1544473916 -0.1093974113 0.685000062 0
0.155814454 -0.1092377007 0.6840000153 0
0.1569467634 -0.1089182943 0.682000041 0
0.1583022177 -0.1087585911 0.6810000539 0
0.1594182104 -0.1084391773 0.67900002 0
0.160762012 -0.1082794815 0.6780000329 0
0.1621011496 -0.1081197783 0.6770000458 0
0.1631938666 -0.1078003645 0.6750000119 0
0.1645213664 -0.1076406613 0.6740000248 0
0.1658442169 -0.1074809581 0.6730000377 0
0.2122115642 -0.1087585911 0.6810000539 0
-0.1499033123 -0.05413732678 0.3440000117 0
-0.1491023749 -0.05413732678 0.3440000117 0
-0.1483014524 -0.05413732678 0.3440000117 0
-0.147500515 -0.05413732678 0.3440000117 0
-0.1466995925 -0.05413732678 0.3440000117 0
-0.1458986551 -0.05413732678 0.3440000117 0
-0.1446759254 -0.05397995189 0.3430000246 0
-0.165455088 -0.1163008288 0.7390000224 0
-0.1637344807 -0.1163008288 0.7390000224 0
-0.1622330993 -0.1164581999 0.7400000095 0
-0.1607270837 -0.116615586 0.7410000563 0
-0.1592163891 -0.1167729571 0.7420000434 0
-0.1577010453 -0.1169303358 0.7430000305 0
-0.1559711099 -0.1169303358 0.7430000305 0
-0.1546563804 -0.117245093 0.7450000644 0
-0.1533323228 -0.1175598353 0.7470000386 0
-0.1515930891 -0.1175598353 0.7470000386 0
-0.1502550542 -0.1178745851 0.7490000129 0
-0.1491060108 -0.1183467135 0.7520000339 0
-0.1475510746 -0.1185040921 0.753000021 0
-0.1463787407 -0.1189762205 0.756000042 0
-0.1450011432 -0.1192909703 0.7580000162 0
-0.1439921558 -0.1199204773 0.7620000243 0
-0.1425912678 -0.1202352345 0.7640000582 0
-0.1413653791 -0.1207073554 0.7670000196 0
-0.1399435401 -0.1210221127 0.7690000534 0
-0.138512373 -0.1213368624 0.7710000277 0
-0.1370719224 -0.1216516197 0.7730000615 0
-0.1356221437 -0.121966362 0.7750000358 0
-0.1341630369 -0.1222811118 0.77700001 0
-0.1330353171 -0.1229106188 0.7810000181 0
-0.1317209601 -0.1233827472 0.7840000391 0
-0.1305583119 -0.1240122542 0.7880000472 0
-0.129213661 -0.1244843751 0.7910000086 0
-0.1276940405 -0.1247991323 0.7930000424 0
-0.1263238043 -0.1252712607 0.7960000634 0
-0.1250959486 -0.1259007603 0.8000000119 0
-0.1240035221 -0.1266876459 0.8050000668 0
-0.1174050421 -0.1364449561 0.8670000434 0
-0.1161849201 -0.1373892128 0.8730000257 0
-0.1145446002 -0.1378613412 0.8760000467 0
-0.1126334518 -0.1380187124 0.8770000339 0
-0.110843733 -0.1383334696 0.8790000677 0
-0.1087971628 -0.1383334696 0.8790000677 0
-0.1068720371 -0.1384908408 0.8800000548 0
-0.1048231348 -0.1384908408 0.8800000548 0
-0.01471684687 -0.1085894108 0.6900000572 0
-0.01303432137 -0.1079599038 0.6860000491 0
-0.01138709392 -0.1074877754 0.6830000281 0
-0.009768179618 -0.1071730256 0.6810000539 0
-0.008158578537 -0.1068582684 0.67900002 0
-0.006558291148 -0.1065435261 0.6770000458 0
-0.004959957208 -0.1060713902 0.6740000248 0
-0.003375593806 -0.1055992618 0.6710000038 0
-0.001807902358 -0.105284512 0.6690000296 0
-0.000249524106 -0.1049697623 0.6670000553 0
0.001303449506 -0.1049697623 0.6670000553 0
0.002852140227 -0.1048123837 0.6660000086 0
0.004402785562 -0.1048123837 0.6660000086 0
0.00593555253 -0.1044976339 0.6640000343 0
0.007459006738 -0.1041828841 0.6620000601 0
0.008973146789 -0.1038681269 0.6600000262 0
0.01049389876 -0.1037107557 0.6590000391 0
0.0119917402 -0.1033959985 0.6570000052 0
0.01345969085 -0.1029238775 0.6540000439 0
0.01493657753 -0.1026091203 0.65200001 0
0.01640415192 -0.1022943705 0.6500000358 0
0.01786241308 -0.1019796133 0.6480000019 0
0.01931136288 -0.1016648635 0.6460000277 0
0.02075099759 -0.1013501212 0.6440000534 0
0.02221586742 -0.1011927351 0.6430000067 0
0.02367608622 -0.101035364 0.6420000196 0
0.0251708515 -0.101035364 0.6420000196 0
0.02666561678 -0.101035364 0.6420000196 0
0.02820424549 -0.1011927351 0.6430000067 0
0.02983991615 -0.1016648635 0.6460000277 0
0.0315380767 -0.1022943705 0.6500000358 0
0.03315316513 -0.1026091203 0.65200001 0
0.0348839201 -0.1032386273 0.6560000181 0
0.03657779843 -0.1037107557 0.6590000391 0
0.03828564659 -0.1041828841 0.6620000601 0
0.04989041388 -0.105914019 0.6730000377 0
0.05130443722 -0.1055992618 0.6710000038 0
0.05263036489 -0.1051271409 0.6680000424 0
0.05402342975 -0.1048123837 0.6660000086 0
0.05678163096 -0.1041828841 0.6620000601 0
0.05823485926 -0.1040255055 0.6610000134 0
0.05968343839 -0.1038681269 0.6600000262 0
0.06122010946 -0.1038681269 0.6600000262 0
0.06266169995 -0.1037107557 0.6590000391 0
0.09878955036 -0.1263728887 0.8030000329 0
0.1006591767 -0.1263728887 0.8030000329 0
0.1027841642 -0.1266876459 0.8050000668 0
0.1049184576 -0.1270023882 0.807000041 0
0.1069297343 -0.1271597743 0.8080000281 0
0.1092149988 -0.1276319027 0.8110000491 0
0.1115142256 -0.1281040162 0.8140000105 0
0.1136881188 -0.1284187734 0.8160000443 0
0.1157296523 -0.1285761595 0.8170000315 0
0.1183517724 -0.1293630302 0.8220000267 0
0.120558247 -0.1296777874 0.8240000606 0
0.1179826781 -0.1024517417 0.6510000229 0
0.1193148419 -0.1022943705 0.6500000358 0
0.1210141256 -0.1024517417 0.6510000229 0
0.1232827157 -0.1030812487 0.655000031 0
0.1257604808 -0.1038681269 0.6600000262 0
0.1286472827 -0.1049697623 0.6670000553 0
0.1313714683 -0.105914019 0.6730000377 0
0.1339260638 -0.1067008972 0.6780000329 0
0.1365039349 -0.1074877754 0.6830000281 0
0.1387007385 -0.1079599038 0.6860000491 0
0.141525045 -0.1089041606 0.6920000315 0
0.1439636052 -0.1095336676 0.6960000396 0
0.1455841064 -0.1095336676 0.6960000396 0
0.1472045928 -0.1095336676 0.6960000396 0
0.1486112624 -0.109376289 0.6950000525 0
0.1502294242 -0.109376289 0.6950000525 0
0.1514106095 -0.1090615317 0.6930000186 0
0.1528033018 -0.1089041606 0.6920000315 0
0.1539682001 -0.1085894108 0.6900000572 0
0.1553492546 -0.1084320322 0.6890000105 0
0.15672566 -0.1082746536 0.6880000234 0
0.1578672677 -0.1079599038 0.6860000491 0
0.1589995772 -0.1076451465 0.6840000153 0
0.1603573412 -0.1074877754 0.6830000281 0
0.1614733487 -0.1071730256 0.6810000539 0
0.1625800282 -0.1068582684 0.67900002 0
0.1641609371 -0.1068582684 0.67900002 0
0.165253669 -0.1065435261 0.6770000458 0
0.1668299139 -0.1065435261 0.6770000458 0
0.1681574285 -0.1063861474 0.6760000587 0
0.1694802493 -0.1062287688 0.6750000119 0
0.1718562692 -0.1057566404 0.6720000505 0
0.2090795636 -0.1063861474 0.6760000587 0
0.2118999362 -0.107015647 0.6800000072 0
0.2134831846 -0.107015647 0.6800000072 0
0.215066433 -0.107015647 0.6800000072 0
0.2163310647 -0.1068582684 0.67900002 0
0.2179119885 -0.1068582684 0.67900002 0
-0.1499033123 -0.05333639681 0.3440000117 0
-0.1491023749 -0.05333639681 0.3440000117 0
-0.1483014524 -0.05333639681 0.3440000117 0
-0.147500515 -0.05333639681 0.3440000117 0
-0.1466995925 -0.05333639681 0.3440000117 0
-0.1458986551 -0.05333639681 0.3440000117 0
-0.1450977176 -0.05333639681 0.3440000117 0
-0.1442967802 -0.05333639681 0.3440000117 0
-0.165455088 -0.1145802215 0.7390000224 0
-0.1639560461 -0.1147352681 0.7400000095 0
-0.1624523401 -0.1148903221 0.7410000563 0
-0.1607270837 -0.1148903221 0.7410000563 0
-0.1592163891 -0.1150453687 0.7420000434 0
-0.1577010453 -0.1152004153 0.7430000305 0
-0.1559711099 -0.1152004153 0.7430000305 0
-0.1546563804 -0.1155105159 0.7450000644 0
-0.1531270742 -0.115665555 0.7460000515 0
-0.1515930891 -0.1158206016 0.7470000386 0
-0.1502550542 -0.1161306947 0.7490000129 0
-0.1489077359 -0.1164407954 0.7510000467 0
-0.1475510746 -0.1167508885 0.753000021 0
-0.1463787407 -0.1172160357 0.756000042 0
-0.1450011432 -0.1175261214 0.7580000162 0
-0.1439921558 -0.1181463152 0.7620000243 0
-0.1425912678 -0.1184564158 0.7640000582 0
-0.1413653791 -0.1189215556 0.7670000196 0
-0.1399435401 -0.1192316562 0.7690000534 0
-0.1386920363 -0.1196967885 0.7720000148 0
-0.1372492462 -0.1200068891 0.7740000486 0
-0.1357971281 -0.1203169823 0.7760000229 0
-0.1343357116 -0.1206270829 0.7780000567 0
-0.1332056522 -0.1212472767 0.7820000648 0
-0.1318889558 -0.1217124164 0.7850000262 0
-0.1305583119 -0.1221775562 0.7880000472 0
-0.1290502995 -0.1224876493 0.7900000215 0
-0.1275330186 -0.1227977499 0.7920000553 0
-0.126165092 -0.1232628897 0.7950000167 0
-0.1249395758 -0.1238830835 0.7990000248 0
-0.1236954331 -0.1245032698 0.8030000329 0
-0.1224326715 -0.125123471 0.807000041 0
-0.1193412244 -0.1321006119 0.8520000577 0
-0.1184594631 -0.1333409846 0.8600000143 0
-0.1172696352 -0.134271279 0.8660000563 0
-0.1160518378 -0.1352015585 0.8720000386 0
-0.1145446002 -0.1358217597 0.8760000467 0
-0.1128903106 -0.1362868994 0.8790000677 0
-0.110843733 -0.1362868994 0.8790000677 0
-0.1089209393 -0.136441946 0.8800000548 0
-0.107114926 -0.1367520392 0.8820000291 0
-0.1050613672 -0.1367520392 0.8820000291 0
-0.1030078158 -0.1367520392 0.8820000291 0
-0.100954257 -0.1367520392 0.8820000291 0
-0.09662753344 -0.136441946 0.8800000548 0
-0.01471684687 -0.1069828942 0.6900000572 0
-0.01305332128 -0.106517747 0.6870000362 0
-0.01138709392 -0.1058975533 0.6830000281 0
-0.009768179618 -0.1055874601 0.6810000539 0
-0.00817059353 -0.1054324061 0.6800000072 0
-0.006558291148 -0.1049672663 0.6770000458 0
-0.004967316054 -0.1046571657 0.6750000119 0
-0.003375593806 -0.1040369794 0.6710000038 0
-0.001807902358 -0.1037268862 0.6690000296 0
-0.000249524106 -0.103416793 0.6670000553 0
0.001303449506 -0.103416793 0.6670000553 0
0.002856422914 -0.103416793 0.6670000553 0
0.004402785562 -0.103261739 0.6660000086 0
0.00593555253 -0.1029516459 0.6640000343 0
0.007481541019 -0.1029516459 0.6640000343 0
0.009000338614 -0.1026415601 0.6620000601 0
0.01050982252 -0.1023314595 0.6600000262 0
0.01202824526 -0.1021764129 0.6590000391 0
0.01352143195 -0.1018663123 0.6570000052 0
0.01500530448 -0.1015562192 0.655000031 0
0.01645462587 -0.101091072 0.65200001 0
0.0179451108 -0.1009360254 0.6510000229 0
0.01940104365 -0.1006259322 0.6490000486 0
0.02084766328 -0.1003158316 0.6470000148 0
0.02228496969 -0.1000057459 0.6450000405 0
0.0237498451 -0.09985069931 0.6440000534 0
0.025249267 -0.09985069931 0.6440000534 0
0.0267071519 -0.09969564527 0.6430000067 0
0.02824811079 -0.09985069931 0.6440000534 0
0.02983991615 -0.1001607925 0.6460000277 0
0.0315380767 -0.1007809788 0.6500000358 0
0.03320401534 -0.101246126 0.6530000567 0
0.03483074531 -0.1015562192 0.655000031 0
0.03652229533 -0.1020213664 0.658000052 0
0.03828564659 -0.1026415601 0.6620000601 0
0.04375227913 -0.1046571657 0.6750000119 0
0.04545817524 -0.1049672663 0.6770000458 0
0.04696495458 -0.1048122272 0.6760000587 0
0.04832347482 -0.10434708 0.6730000377 0
0.04981628433 -0.1041920334 0.6720000505 0
0.05122797936 -0.1038819328 0.6700000167 0
0.05255157873 -0.103416793 0.6670000553 0
0.05402342975 -0.103261739 0.6660000086 0
0.05540718883 -0.1029516459 0.6640000343 0
0.05686740205 -0.1027965993 0.6630000472 0
0.0583229661 -0.1026415601 0.6620000601 0
0.05977386609 -0.1024864987 0.6610000134 0
0.06122010946 -0.1023314595 0.6600000262 0
0.06275678426 -0.1023314595 0.6600000262 0
0.09679923207 -0.1243482232 0.8020000458 0
0.09878955036 -0.1245032698 0.8030000329 0
0.1006591767 -0.1245032698 0.8030000329 0
0.1026564762 -0.1246583164 0.80400002 0
0.1047884449 -0.124968417 0.8060000539 0
0.1069297343 -0.1252785027 0.8080000281 0
0.109080337 -0.1255886108 0.810000062 0
0.1113772318 -0.1260537505 0.8130000234 0
0.1136881188 -0.1265188903 0.8160000443 0
0.1157296523 -0.1266739368 0.8170000315 0
0.11820779 -0.1272941381 0.8210000396 0
0.120558247 -0.1277592778 0.8240000606 0
0.119131282 -0.1006259322 0.6490000486 0
0.1208282411 -0.1007809788 0.6500000358 0
0.1229062825 -0.101246126 0.6530000567 0
0.1286472827 -0.103416793 0.6670000553 0
0.1313714683 -0.10434708 0.6730000377 0
0.1343211234 -0.1054324061 0.6800000072 0
0.1367038041 -0.1060525998 0.6840000153 0
0.1391051114 -0.1066727936 0.6880000234 0
0.1421386003 -0.1077581272 0.6950000525 0
0.1445841342 -0.1083783209 0.6990000606 0
0.1462116241 -0.1083783209 0.6990000606 0
0.1480505913 -0.1085333675 0.7000000477 0
0.1494665742 -0.1083783209 0.6990000606 0
0.1510940492 -0.1083783209 0.6990000606 0
0.1522845626 -0.1080682203 0.6970000267 0
0.1539073735 -0.1080682203 0.6970000267 0
0.1550839245 -0.1077581272 0.6950000525 0
0.1562511474 -0.1074480265 0.6930000186 0
0.1576368511 -0.10729298 0.6920000315 0
0.158787787 -0.1069828942 0.6900000572 0
0.1599293947 -0.1066727936 0.6880000234 0
0.161296472 -0.106517747 0.6870000362 0
0.1624217927 -0.1062076539 0.685000062 0
0.1635377854 -0.1058975533 0.6830000281 0
0.1651280224 -0.1058975533 0.6830000281 0
0.1662300527 -0.1055874601 0.6810000539 0
0.1678156257 -0.1055874601 0.6810000539 0
0.1691524386 -0.1054324061 0.6800000072 0
0.1747250855 -0.1040369794 0.6710000038 0
0.1757619381 -0.1037268862 0.6690000296 0
0.1765243858 -0.103261739 0.6660000086 0
0.1961499006 -0.1021764129 0.6590000391 0
0.1982841939 -0.1024864987 0.6610000134 0
0.2084609866 -0.1045021266 0.6740000248 0
0.2115883231 -0.1052773595 0.67900002 0
0.2131692469 -0.1052773595 0.67900002 0
