# .PCD v0.7 - Point Cloud Data file format
VERSION 0.7
FIELDS x y z rgb
SIZE 4 4 4 4
TYPE F F F F
COUNT 1 1 1 1
WIDTH 661
HEIGHT 1
VIEWPOINT 0 0 0 1 0 0 0
POINTS 661
DATA ascii
0.06750000268 -0.01750000007 0.01250000019 0
0.06750000268 -0.01250000019 0.01250000019 0
0.0625 -0.01750000007 0.01750000007 0
0.06750000268 -0.01250000019 0.01750000007 0
0.06750000268 -0.007499999832 0.01250000019 0
0.06750000268 -0.002499999944 0.01250000019 0
0.06750000268 -0.007499999832 0.01750000007 0
0.06750000268 -0.002499999944 0.01750000007 0
0.0625 -0.01750000007 0.02250000089 0
0.0625 -0.01250000019 0.02250000089 0
0.0625 -0.01750000007 0.02749999985 0
0.0625 -0.01250000019 0.02749999985 0
0.0625 -0.007499999832 0.02250000089 0
0.06750000268 -0.007499999832 0.02250000089 0
0.0625 -0.002499999944 0.02250000089 0
0.06750000268 -0.002499999944 0.02250000089 0
0.0625 -0.007499999832 0.02749999985 0
0.0625 -0.002499999944 0.02749999985 0
0.0625 -0.01250000019 0.03249999881 0
0.0625 -0.01250000019 0.03750000149 0
0.0625 -0.007499999832 0.03249999881 0
0.0625 -0.002499999944 0.03249999881 0
0.0625 -0.007499999832 0.03750000149 0
0.0625 -0.002499999944 0.03750000149 0
0.05750000104 -0.01250000019 0.0474999994 0
0.05750000104 -0.007499999832 0.05249999836 0
0.05750000104 -0.002499999944 0.05249999836 0
0.05750000104 -0.007499999832 0.05750000104 0
0.05750000104 -0.002499999944 0.05750000104 0
0.0625 -0.01250000019 0.04250000045 0
0.0625 -0.007499999832 0.04250000045 0
0.0625 -0.002499999944 0.04250000045 0
0.0625 -0.007499999832 0.0474999994 0
0.0625 -0.002499999944 0.0474999994 0
0.0625 -0.002499999944 0.05249999836 0
0.05750000104 -0.007499999832 0.0625 0
0.05750000104 -0.002499999944 0.0625 0
0.05750000104 -0.007499999832 0.06750000268 0
0.05750000104 -0.002499999944 0.06750000268 0
0.05750000104 -0.007499999832 0.07249999791 0
0.05750000104 -0.002499999944 0.07249999791 0
0.05750000104 -0.002499999944 0.0775000006 0
0.05750000104 -0.002499999944 0.08250000328 0
0.05750000104 -0.002499999944 0.08749999851 0
0.0625 -0.002499999944 0.09250000119 0
0.0625 -0.002499999944 0.09749999642 0
0.05750000104 -0.002499999944 0.1024999991 0
0.05750000104 -0.002499999944 0.1075000018 0
0.0625 -0.002499999944 0.1024999991 0
0.0625 -0.002499999944 0.1075000018 0
0.0625 -0.002499999944 0.112499997 0
0.0625 -0.002499999944 0.1174999997 0
0.0625 -0.002499999944 0.1225000024 0
0.0625 -0.002499999944 0.1274999976 0
0.6025000215 -0.0474999994 0.01250000019 0
0.6075000167 -0.0474999994 0.01250000019 0
0.6025000215 -0.0474999994 0.01750000007 0
0.6075000167 -0.0474999994 0.01750000007 0
0.6125000119 -0.0474999994 0.01250000019 0
0.6175000072 -0.0474999994 0.01250000019 0
0.6125000119 -0.0474999994 0.01750000007 0
0.6175000072 -0.0474999994 0.01750000007 0
0.6225000024 -0.0474999994 0.01250000019 0
0.6274999976 -0.0474999994 0.01250000019 0
0.6225000024 -0.0474999994 0.01750000007 0
0.6274999976 -0.0474999994 0.01750000007 0
0.6324999928 -0.0474999994 0.01250000019 0
0.6374999881 -0.0474999994 0.01250000019 0
0.6324999928 -0.0474999994 0.01750000007 0
0.6374999881 -0.0474999994 0.01750000007 0
0.6025000215 -0.0474999994 0.02250000089 0
0.6075000167 -0.0474999994 0.02250000089 0
0.6025000215 -0.0474999994 0.02749999985 0
0.6075000167 -0.0474999994 0.02749999985 0
0.6125000119 -0.0474999994 0.02250000089 0
0.6175000072 -0.0474999994 0.02250000089 0
0.6125000119 -0.0474999994 0.02749999985 0
0.6175000072 -0.0474999994 0.02749999985 0
0.6025000215 -0.0474999994 0.03249999881 0
0.6075000167 -0.0474999994 0.03249999881 0
0.6025000215 -0.0474999994 0.03750000149 0
0.6075000167 -0.0474999994 0.03750000149 0
0.6125000119 -0.0474999994 0.03249999881 0
0.6175000072 -0.0474999994 0.03249999881 0
0.6125000119 -0.0474999994 0.03750000149 0
0.6175000072 -0.0474999994 0.03750000149 0
0.6225000024 -0.0474999994 0.02250000089 0
0.6274999976 -0.0474999994 0.02250000089 0
0.6225000024 -0.0474999994 0.02749999985 0
0.6274999976 -0.0474999994 0.02749999985 0
0.6324999928 -0.0474999994 0.02250000089 0
0.6374999881 -0.0474999994 0.02250000089 0
0.6324999928 -0.0474999994 0.02749999985 0
0.6374999881 -0.0474999994 0.02749999985 0
0.6225000024 -0.0474999994 0.03249999881 0
0.6274999976 -0.0474999994 0.03249999881 0
0.6225000024 -0.0474999994 0.03750000149 0
0.6274999976 -0.0474999994 0.03750000149 0
0.6324999928 -0.0474999994 0.03249999881 0
0.6374999881 -0.0474999994 0.03249999881 0
0.6324999928 -0.0474999994 0.03750000149 0
0.6374999881 -0.0474999994 0.03750000149 0
0.6025000215 -0.03249999881 0.01250000019 0
0.6025000215 -0.02749999985 0.01250000019 0
0.6025000215 -0.02250000089 0.01250000019 0
0.6025000215 -0.02250000089 0.01750000007 0
0.6025000215 -0.01750000007 0.01250000019 0
0.6025000215 -0.01250000019 0.01250000019 0
0.6025000215 -0.01750000007 0.01750000007 0
0.6025000215 -0.01250000019 0.01750000007 0
0.6025000215 -0.007499999832 0.01250000019 0
0.6025000215 -0.002499999944 0.01250000019 0
0.6025000215 -0.007499999832 0.01750000007 0
0.6025000215 -0.002499999944 0.01750000007 0
0.6025000215 -0.02749999985 0.02250000089 0
0.6025000215 -0.02250000089 0.02250000089 0
0.6025000215 -0.02250000089 0.02749999985 0
0.6025000215 -0.02250000089 0.03249999881 0
0.6025000215 -0.02749999985 0.03750000149 0
0.6025000215 -0.02250000089 0.03750000149 0
0.6025000215 -0.01750000007 0.02250000089 0
0.6025000215 -0.01250000019 0.02250000089 0
0.6025000215 -0.01750000007 0.02749999985 0
0.6025000215 -0.01250000019 0.02749999985 0
0.6025000215 -0.007499999832 0.02250000089 0
0.6025000215 -0.002499999944 0.02250000089 0
0.6025000215 -0.007499999832 0.02749999985 0
0.6025000215 -0.002499999944 0.02749999985 0
0.6025000215 -0.01750000007 0.03249999881 0
0.6025000215 -0.01250000019 0.03249999881 0
0.6025000215 -0.01750000007 0.03750000149 0
0.6025000215 -0.01250000019 0.03750000149 0
0.6025000215 -0.007499999832 0.03249999881 0
0.6025000215 -0.002499999944 0.03249999881 0
0.6025000215 -0.007499999832 0.03750000149 0
0.6025000215 -0.002499999944 0.03750000149 0
0.6025000215 -0.0474999994 0.04250000045 0
0.6075000167 -0.0474999994 0.04250000045 0
0.6025000215 -0.0474999994 0.0474999994 0
0.6075000167 -0.0474999994 0.0474999994 0
0.6025000215 -0.04250000045 0.0474999994 0
0.6075000167 -0.04250000045 0.0474999994 0
0.6125000119 -0.0474999994 0.04250000045 0
0.6175000072 -0.0474999994 0.04250000045 0
0.6125000119 -0.0474999994 0.0474999994 0
0.6175000072 -0.0474999994 0.0474999994 0
0.6125000119 -0.04250000045 0.0474999994 0
0.6175000072 -0.04250000045 0.0474999994 0
0.6225000024 -0.0474999994 0.04250000045 0
0.6274999976 -0.0474999994 0.04250000045 0
0.6225000024 -0.0474999994 0.0474999994 0
0.6274999976 -0.0474999994 0.0474999994 0
0.6225000024 -0.04250000045 0.0474999994 0
0.6274999976 -0.04250000045 0.0474999994 0
0.6324999928 -0.0474999994 0.04250000045 0
0.6374999881 -0.0474999994 0.04250000045 0
0.6324999928 -0.0474999994 0.0474999994 0
0.6374999881 -0.0474999994 0.0474999994 0
0.6324999928 -0.04250000045 0.0474999994 0
0.6374999881 -0.04250000045 0.0474999994 0
0.6025000215 -0.03249999881 0.04250000045 0
0.6075000167 -0.03750000149 0.0474999994 0
0.6075000167 -0.03249999881 0.0474999994 0
0.6125000119 -0.03750000149 0.0474999994 0
0.6175000072 -0.03750000149 0.0474999994 0
0.6125000119 -0.03249999881 0.0474999994 0
0.6175000072 -0.03249999881 0.0474999994 0
0.6025000215 -0.02250000089 0.04250000045 0
0.6025000215 -0.02749999985 0.0474999994 0
0.6075000167 -0.02749999985 0.0474999994 0
0.6075000167 -0.02250000089 0.0474999994 0
0.6125000119 -0.02749999985 0.0474999994 0
0.6175000072 -0.02749999985 0.0474999994 0
0.6125000119 -0.02250000089 0.0474999994 0
0.6175000072 -0.02250000089 0.0474999994 0
0.6225000024 -0.03750000149 0.0474999994 0
0.6274999976 -0.03750000149 0.0474999994 0
0.6225000024 -0.03249999881 0.0474999994 0
0.6274999976 -0.03249999881 0.0474999994 0
0.6324999928 -0.03750000149 0.0474999994 0
0.6374999881 -0.03750000149 0.0474999994 0
0.6324999928 -0.03249999881 0.0474999994 0
0.6374999881 -0.03249999881 0.0474999994 0
0.6225000024 -0.02749999985 0.0474999994 0
0.6274999976 -0.02749999985 0.0474999994 0
0.6225000024 -0.02250000089 0.0474999994 0
0.6274999976 -0.02250000089 0.0474999994 0
0.6324999928 -0.02749999985 0.0474999994 0
0.6374999881 -0.02749999985 0.0474999994 0
0.6324999928 -0.02250000089 0.0474999994 0
0.6374999881 -0.02250000089 0.0474999994 0
0.6025000215 -0.01750000007 0.04250000045 0
0.6025000215 -0.01250000019 0.04250000045 0
0.6025000215 -0.01750000007 0.0474999994 0
0.6075000167 -0.01750000007 0.0474999994 0
0.6075000167 -0.01250000019 0.0474999994 0
0.6125000119 -0.01750000007 0.0474999994 0
0.6175000072 -0.01750000007 0.0474999994 0
0.6125000119 -0.01250000019 0.0474999994 0
0.6175000072 -0.01250000019 0.0474999994 0
0.6025000215 -0.007499999832 0.04250000045 0
0.6025000215 -0.002499999944 0.04250000045 0
0.6025000215 -0.007499999832 0.0474999994 0
0.6075000167 -0.007499999832 0.0474999994 0
0.6075000167 -0.002499999944 0.0474999994 0
0.6125000119 -0.007499999832 0.0474999994 0
0.6175000072 -0.007499999832 0.0474999994 0
0.6125000119 -0.002499999944 0.0474999994 0
0.6175000072 -0.002499999944 0.0474999994 0
0.6225000024 -0.01750000007 0.0474999994 0
0.6274999976 -0.01750000007 0.0474999994 0
0.6225000024 -0.01250000019 0.0474999994 0
0.6274999976 -0.01250000019 0.0474999994 0
0.6324999928 -0.01750000007 0.0474999994 0
0.6374999881 -0.01750000007 0.0474999994 0
0.6324999928 -0.01250000019 0.0474999994 0
0.6374999881 -0.01250000019 0.0474999994 0
0.6225000024 -0.007499999832 0.0474999994 0
0.6274999976 -0.007499999832 0.0474999994 0
0.6225000024 -0.002499999944 0.0474999994 0
0.6274999976 -0.002499999944 0.0474999994 0
0.6324999928 -0.007499999832 0.0474999994 0
0.6374999881 -0.007499999832 0.0474999994 0
0.6324999928 -0.002499999944 0.0474999994 0
0.6374999881 -0.002499999944 0.0474999994 0
0.6424999833 -0.0474999994 0.01250000019 0
0.6474999785 -0.0474999994 0.01250000019 0
0.6424999833 -0.0474999994 0.01750000007 0
0.6474999785 -0.0474999994 0.01750000007 0
0.6524999738 -0.0474999994 0.01250000019 0
0.6524999738 -0.0474999994 0.01750000007 0
0.6424999833 -0.0474999994 0.02250000089 0
0.6474999785 -0.0474999994 0.02250000089 0
0.6424999833 -0.0474999994 0.02749999985 0
0.6474999785 -0.0474999994 0.02749999985 0
0.6524999738 -0.0474999994 0.02250000089 0
0.6524999738 -0.0474999994 0.02749999985 0
0.6524999738 -0.04250000045 0.02749999985 0
0.6424999833 -0.0474999994 0.03249999881 0
0.6474999785 -0.0474999994 0.03249999881 0
0.6424999833 -0.0474999994 0.03750000149 0
0.6474999785 -0.0474999994 0.03750000149 0
0.6524999738 -0.0474999994 0.03249999881 0
0.6524999738 -0.0474999994 0.03750000149 0
0.6524999738 -0.03249999881 0.01250000019 0
0.6524999738 -0.01750000007 0.01750000007 0
0.6524999738 -0.002499999944 0.01250000019 0
0.6524999738 -0.02749999985 0.02250000089 0
0.6524999738 -0.03750000149 0.03750000149 0
0.6524999738 -0.02250000089 0.03249999881 0
0.6524999738 -0.01250000019 0.02749999985 0
0.6524999738 -0.002499999944 0.03750000149 0
0.6424999833 -0.0474999994 0.04250000045 0
0.6474999785 -0.0474999994 0.04250000045 0
0.6424999833 -0.0474999994 0.0474999994 0
0.6474999785 -0.0474999994 0.0474999994 0
0.6424999833 -0.04250000045 0.0474999994 0
0.6474999785 -0.04250000045 0.0474999994 0
0.6524999738 -0.0474999994 0.04250000045 0
0.6524999738 -0.0474999994 0.0474999994 0
0.6524999738 -0.04250000045 0.0474999994 0
0.6424999833 -0.03750000149 0.0474999994 0
0.6474999785 -0.03750000149 0.0474999994 0
0.6424999833 -0.03249999881 0.0474999994 0
0.6474999785 -0.03249999881 0.0474999994 0
0.6524999738 -0.03249999881 0.0474999994 0
0.6424999833 -0.02749999985 0.0474999994 0
0.6474999785 -0.02749999985 0.0474999994 0
0.6424999833 -0.02250000089 0.0474999994 0
0.6474999785 -0.02250000089 0.0474999994 0
0.6524999738 -0.02250000089 0.0474999994 0
0.6424999833 -0.01750000007 0.0474999994 0
0.6474999785 -0.01750000007 0.0474999994 0
0.6424999833 -0.01250000019 0.0474999994 0
0.6474999785 -0.01250000019 0.0474999994 0
0.6524999738 -0.01750000007 0.04250000045 0
0.6524999738 -0.01250000019 0.0474999994 0
0.6424999833 -0.007499999832 0.0474999994 0
0.6474999785 -0.007499999832 0.0474999994 0
0.6424999833 -0.002499999944 0.0474999994 0
0.6474999785 -0.002499999944 0.0474999994 0
0.6524999738 -0.002499999944 0.0474999994 0
0.06750000268 0.002499999944 0.01250000019 0
0.06750000268 0.007499999832 0.01250000019 0
0.06750000268 0.002499999944 0.01750000007 0
0.06750000268 0.007499999832 0.01750000007 0
0.06750000268 0.01250000019 0.01250000019 0
0.06750000268 0.01750000007 0.01250000019 0
0.0625 0.01250000019 0.01750000007 0
0.06750000268 0.01250000019 0.01750000007 0
0.0625 0.01750000007 0.01750000007 0
0.05750000104 0.02749999985 0.01750000007 0
0.05750000104 0.03249999881 0.01250000019 0
0.05750000104 0.03750000149 0.01250000019 0
0.05750000104 0.03249999881 0.01750000007 0
0.05249999836 0.03750000149 0.01750000007 0
0.0625 0.02250000089 0.01250000019 0
0.0625 0.02749999985 0.01250000019 0
0.0625 0.02250000089 0.01750000007 0
0.0625 0.02749999985 0.01750000007 0
0.0625 0.03249999881 0.01250000019 0
0.05750000104 0.01750000007 0.03750000149 0
0.06750000268 0.002499999944 0.02250000089 0
0.0625 0.007499999832 0.02250000089 0
0.06750000268 0.007499999832 0.02250000089 0
0.0625 0.002499999944 0.02749999985 0
0.0625 0.007499999832 0.02749999985 0
0.0625 0.01250000019 0.02250000089 0
0.0625 0.01750000007 0.02250000089 0
0.0625 0.01250000019 0.02749999985 0
0.0625 0.01750000007 0.02749999985 0
0.0625 0.002499999944 0.03249999881 0
0.0625 0.007499999832 0.03249999881 0
0.0625 0.002499999944 0.03750000149 0
0.0625 0.007499999832 0.03750000149 0
0.0625 0.01250000019 0.03249999881 0
0.0625 0.01750000007 0.03249999881 0
0.0625 0.01250000019 0.03750000149 0
0.0625 0.01750000007 0.03750000149 0
0.05750000104 0.02749999985 0.02250000089 0
0.05750000104 0.02250000089 0.02749999985 0
0.05750000104 0.02749999985 0.02749999985 0
0.05249999836 0.03750000149 0.02250000089 0
0.05249999836 0.03249999881 0.02749999985 0
0.05750000104 0.03249999881 0.02749999985 0
0.05750000104 0.02250000089 0.03249999881 0
0.05750000104 0.02749999985 0.03249999881 0
0.05750000104 0.02250000089 0.03750000149 0
0.05750000104 0.02749999985 0.03750000149 0
0.05249999836 0.03249999881 0.03249999881 0
0.05249999836 0.03750000149 0.03249999881 0
0.05249999836 0.03249999881 0.03750000149 0
0.0625 0.02250000089 0.02250000089 0
0.0625 0.02250000089 0.02749999985 0
0.03750000149 0.05249999836 0.03249999881 0
0.03249999881 0.0625 0.02250000089 0
0.02250000089 0.06750000268 0.03750000149 0
0.03249999881 0.0625 0.03750000149 0
0.0474999994 0.04250000045 0.01750000007 0
0.05249999836 0.0474999994 0.01250000019 0
0.05249999836 0.04250000045 0.01750000007 0
0.04250000045 0.05249999836 0.01250000019 0
0.0474999994 0.0474999994 0.02250000089 0
0.0474999994 0.04250000045 0.02749999985 0
0.0474999994 0.0474999994 0.02749999985 0
0.04250000045 0.05249999836 0.02250000089 0
0.04250000045 0.0474999994 0.03249999881 0
0.04250000045 0.04250000045 0.03750000149 0
0.0474999994 0.04250000045 0.03750000149 0
0.05750000104 0.007499999832 0.0474999994 0
0.05750000104 0.01750000007 0.04250000045 0
0.05750000104 0.01250000019 0.0474999994 0
0.05750000104 0.01750000007 0.0474999994 0
0.05750000104 0.002499999944 0.05249999836 0
0.05750000104 0.007499999832 0.05249999836 0
0.05750000104 0.002499999944 0.05750000104 0
0.05750000104 0.007499999832 0.05750000104 0
0.05750000104 0.01250000019 0.05249999836 0
0.05750000104 0.01750000007 0.05249999836 0
0.05750000104 0.01250000019 0.05750000104 0
0.05750000104 0.01750000007 0.05750000104 0
0.0625 0.002499999944 0.04250000045 0
0.0625 0.007499999832 0.04250000045 0
0.0625 0.002499999944 0.0474999994 0
0.0625 0.007499999832 0.0474999994 0
0.0625 0.01250000019 0.04250000045 0
0.0625 0.01250000019 0.0474999994 0
0.0625 0.002499999944 0.05249999836 0
0.05750000104 0.02250000089 0.04250000045 0
0.05249999836 0.02749999985 0.04250000045 0
0.05750000104 0.02749999985 0.04250000045 0
0.05750000104 0.02250000089 0.0474999994 0
0.05249999836 0.02749999985 0.0474999994 0
0.0474999994 0.03750000149 0.04250000045 0
0.0474999994 0.03750000149 0.0474999994 0
0.05249999836 0.03249999881 0.04250000045 0
0.05249999836 0.03249999881 0.0474999994 0
0.05750000104 0.02250000089 0.05249999836 0
0.05249999836 0.02749999985 0.05249999836 0
0.05249999836 0.02250000089 0.05750000104 0
0.05750000104 0.02250000089 0.05750000104 0
0.05249999836 0.02749999985 0.05750000104 0
0.0474999994 0.03249999881 0.05249999836 0
0.0474999994 0.03750000149 0.05249999836 0
0.0474999994 0.03750000149 0.05750000104 0
0.05750000104 0.002499999944 0.0625 0
0.05750000104 0.007499999832 0.0625 0
0.05750000104 0.002499999944 0.06750000268 0
0.05750000104 0.007499999832 0.06750000268 0
0.05750000104 0.01250000019 0.0625 0
0.05750000104 0.01750000007 0.0625 0
0.05750000104 0.01250000019 0.06750000268 0
0.05750000104 0.01750000007 0.06750000268 0
0.05750000104 0.002499999944 0.07249999791 0
0.05750000104 0.007499999832 0.07249999791 0
0.05750000104 0.002499999944 0.0775000006 0
0.05750000104 0.007499999832 0.0775000006 0
0.05750000104 0.01250000019 0.07249999791 0
0.05249999836 0.01750000007 0.07249999791 0
0.05750000104 0.01250000019 0.0775000006 0
0.05249999836 0.01750000007 0.0775000006 0
0.05750000104 0.01750000007 0.0775000006 0
0.05249999836 0.02250000089 0.0625 0
0.05249999836 0.02749999985 0.0625 0
0.05249999836 0.02250000089 0.06750000268 0
0.05249999836 0.02749999985 0.06750000268 0
0.0474999994 0.03249999881 0.0625 0
0.0474999994 0.03249999881 0.06750000268 0
0.0474999994 0.03750000149 0.06750000268 0
0.05249999836 0.03249999881 0.0625 0
0.0474999994 0.02749999985 0.07249999791 0
0.05249999836 0.02250000089 0.07249999791 0
0.05249999836 0.02250000089 0.0775000006 0
0.05249999836 0.02749999985 0.0775000006 0
0.0474999994 0.03249999881 0.07249999791 0
0.04250000045 0.03750000149 0.07249999791 0
0.0474999994 0.03249999881 0.0775000006 0
0.03750000149 0.05249999836 0.04250000045 0
0.03249999881 0.05249999836 0.0474999994 0
0.03249999881 0.05750000104 0.0474999994 0
0.03750000149 0.0474999994 0.05249999836 0
0.03249999881 0.05249999836 0.05750000104 0
0.03249999881 0.05750000104 0.05750000104 0
0.01750000007 0.06750000268 0.05249999836 0
0.02749999985 0.0625 0.05249999836 0
0.03750000149 0.0474999994 0.0625 0
0.03750000149 0.0474999994 0.06750000268 0
0.03249999881 0.05249999836 0.06750000268 0
0.03750000149 0.04250000045 0.0775000006 0
0.03750000149 0.0474999994 0.0775000006 0
0.02749999985 0.05249999836 0.07249999791 0
0.02749999985 0.05750000104 0.07249999791 0
0.01250000019 0.07249999791 0.06750000268 0
0.01250000019 0.06750000268 0.0775000006 0
0.02749999985 0.0625 0.0625 0
0.02250000089 0.06750000268 0.0625 0
0.02250000089 0.0625 0.0775000006 0
0.04250000045 0.0474999994 0.04250000045 0
0.0474999994 0.04250000045 0.0474999994 0
0.04250000045 0.04250000045 0.05249999836 0
0.04250000045 0.04250000045 0.05750000104 0
0.04250000045 0.04250000045 0.0625 0
0.04250000045 0.04250000045 0.07249999791 0
0.05750000104 0.002499999944 0.08250000328 0
0.05750000104 0.007499999832 0.08250000328 0
0.05750000104 0.002499999944 0.08749999851 0
0.05750000104 0.007499999832 0.08749999851 0
0.05750000104 0.01250000019 0.08250000328 0
0.05249999836 0.01750000007 0.08250000328 0
0.05750000104 0.01250000019 0.08749999851 0
0.05750000104 0.01750000007 0.08749999851 0
0.05750000104 0.007499999832 0.09250000119 0
0.05750000104 0.002499999944 0.09749999642 0
0.05750000104 0.007499999832 0.09749999642 0
0.05750000104 0.01250000019 0.09250000119 0
0.05750000104 0.01750000007 0.09250000119 0
0.05750000104 0.01250000019 0.09749999642 0
0.05750000104 0.01750000007 0.09749999642 0
0.0625 0.002499999944 0.09250000119 0
0.0625 0.002499999944 0.09749999642 0
0.0474999994 0.02749999985 0.08250000328 0
0.0474999994 0.02749999985 0.08749999851 0
0.05249999836 0.02250000089 0.08250000328 0
0.05249999836 0.02749999985 0.08250000328 0
0.05249999836 0.02250000089 0.08749999851 0
0.04250000045 0.03750000149 0.08250000328 0
0.0474999994 0.03249999881 0.08749999851 0
0.05750000104 0.02250000089 0.09250000119 0
0.05750000104 0.02250000089 0.09749999642 0
0.0474999994 0.03249999881 0.09250000119 0
0.04250000045 0.03249999881 0.09749999642 0
0.04250000045 0.03750000149 0.09749999642 0
0.05750000104 0.007499999832 0.1024999991 0
0.05750000104 0.002499999944 0.1075000018 0
0.05750000104 0.007499999832 0.1075000018 0
0.05750000104 0.01250000019 0.1024999991 0
0.05750000104 0.01750000007 0.1024999991 0
0.05750000104 0.01250000019 0.1075000018 0
0.05750000104 0.01750000007 0.1075000018 0
0.05750000104 0.002499999944 0.112499997 0
0.05750000104 0.007499999832 0.112499997 0
0.05750000104 0.002499999944 0.1174999997 0
0.05750000104 0.01250000019 0.112499997 0
0.05750000104 0.01750000007 0.112499997 0
0.05750000104 0.01250000019 0.1174999997 0
0.05750000104 0.01750000007 0.1174999997 0
0.0625 0.002499999944 0.1024999991 0
0.0625 0.007499999832 0.1024999991 0
0.0625 0.002499999944 0.1075000018 0
0.0625 0.007499999832 0.1075000018 0
0.0625 0.002499999944 0.112499997 0
0.0625 0.007499999832 0.112499997 0
0.0625 0.002499999944 0.1174999997 0
0.0625 0.007499999832 0.1174999997 0
0.05249999836 0.02250000089 0.1024999991 0
0.05750000104 0.02250000089 0.1024999991 0
0.05249999836 0.02749999985 0.1024999991 0
0.05750000104 0.02250000089 0.1075000018 0
0.05249999836 0.02749999985 0.1075000018 0
0.0474999994 0.03750000149 0.1075000018 0
0.05249999836 0.02250000089 0.112499997 0
0.05249999836 0.02749999985 0.112499997 0
0.05249999836 0.02250000089 0.1174999997 0
0.05750000104 0.02250000089 0.1174999997 0
0.05249999836 0.02749999985 0.1174999997 0
0.0474999994 0.03750000149 0.112499997 0
0.04250000045 0.03750000149 0.1174999997 0
0.05249999836 0.03249999881 0.1174999997 0
0.03750000149 0.04250000045 0.08749999851 0
0.03249999881 0.0474999994 0.08749999851 0
0.02749999985 0.05750000104 0.08250000328 0
0.03249999881 0.05249999836 0.08250000328 0
0.04250000045 0.04250000045 0.1174999997 0
0.03750000149 0.03750000149 0.1474999934 0
0.05750000104 0.002499999944 0.1225000024 0
0.05750000104 0.007499999832 0.1225000024 0
0.05750000104 0.002499999944 0.1274999976 0
0.05750000104 0.007499999832 0.1274999976 0
0.05750000104 0.01250000019 0.1225000024 0
0.05750000104 0.01750000007 0.1225000024 0
0.05750000104 0.01250000019 0.1274999976 0
0.05750000104 0.01750000007 0.1274999976 0
0.05750000104 0.002499999944 0.1324999928 0
0.05750000104 0.007499999832 0.1324999928 0
0.05750000104 0.002499999944 0.137500003 0
0.05249999836 0.007499999832 0.137500003 0
0.05750000104 0.007499999832 0.137500003 0
0.05750000104 0.01250000019 0.1324999928 0
0.05750000104 0.01750000007 0.1324999928 0
0.05750000104 0.01250000019 0.137500003 0
0.05249999836 0.01750000007 0.137500003 0
0.05750000104 0.01750000007 0.137500003 0
0.0625 0.002499999944 0.1225000024 0
0.0625 0.007499999832 0.1225000024 0
0.0625 0.002499999944 0.1274999976 0
0.0625 0.007499999832 0.1274999976 0
0.05750000104 0.02250000089 0.1225000024 0
0.05249999836 0.02749999985 0.1225000024 0
0.05249999836 0.02250000089 0.1274999976 0
0.05750000104 0.02250000089 0.1274999976 0
0.05249999836 0.02749999985 0.1274999976 0
0.0474999994 0.03249999881 0.1225000024 0
0.0474999994 0.03249999881 0.1274999976 0
0.0474999994 0.03750000149 0.1274999976 0
0.05249999836 0.03249999881 0.1225000024 0
0.0474999994 0.02749999985 0.137500003 0
0.05249999836 0.02250000089 0.1324999928 0
0.05249999836 0.02749999985 0.1324999928 0
0.05249999836 0.02250000089 0.137500003 0
0.04250000045 0.03750000149 0.1324999928 0
0.0474999994 0.03750000149 0.1324999928 0
0.04250000045 0.03750000149 0.137500003 0
0.05249999836 0.03249999881 0.137500003 0
0.05249999836 0.007499999832 0.1424999982 0
0.05249999836 0.007499999832 0.1474999934 0
0.05249999836 0.01250000019 0.1424999982 0
0.05249999836 0.01750000007 0.1424999982 0
0.05249999836 0.01250000019 0.1474999934 0
0.05249999836 0.01750000007 0.1474999934 0
0.05249999836 0.007499999832 0.1525000036 0
0.05249999836 0.007499999832 0.1574999988 0
0.05249999836 0.01250000019 0.1525000036 0
0.05249999836 0.01750000007 0.1525000036 0
0.05249999836 0.01250000019 0.1574999988 0
0.05249999836 0.01750000007 0.1574999988 0
0.0474999994 0.02749999985 0.1424999982 0
0.0474999994 0.02250000089 0.1474999934 0
0.0474999994 0.02749999985 0.1474999934 0
0.05249999836 0.02250000089 0.1424999982 0
0.04250000045 0.03750000149 0.1424999982 0
0.04250000045 0.03750000149 0.1474999934 0
0.0474999994 0.02250000089 0.1525000036 0
0.0474999994 0.02749999985 0.1525000036 0
0.0474999994 0.02250000089 0.1574999988 0
0.0474999994 0.02749999985 0.1574999988 0
0.05249999836 0.02250000089 0.1574999988 0
0.0474999994 0.03249999881 0.1525000036 0
0.04250000045 0.03249999881 0.1574999988 0
0.0474999994 0.03249999881 0.1574999988 0
0.03750000149 0.04250000045 0.1225000024 0
0.03750000149 0.0474999994 0.1274999976 0
0.04250000045 0.04250000045 0.137500003 0
0.6025000215 0.002499999944 0.01250000019 0
0.6075000167 0.002499999944 0.01250000019 0
0.6025000215 0.002499999944 0.01750000007 0
0.6075000167 0.002499999944 0.01750000007 0
0.6125000119 0.002499999944 0.01250000019 0
0.6175000072 0.002499999944 0.01250000019 0
0.6125000119 0.002499999944 0.01750000007 0
0.6175000072 0.002499999944 0.01750000007 0
0.6225000024 0.002499999944 0.01250000019 0
0.6274999976 0.002499999944 0.01250000019 0
0.6225000024 0.002499999944 0.01750000007 0
0.6274999976 0.002499999944 0.01750000007 0
0.6324999928 0.002499999944 0.01250000019 0
0.6374999881 0.002499999944 0.01250000019 0
0.6324999928 0.002499999944 0.01750000007 0
0.6374999881 0.002499999944 0.01750000007 0
0.6025000215 0.002499999944 0.02250000089 0
0.6075000167 0.002499999944 0.02250000089 0
0.6025000215 0.002499999944 0.02749999985 0
0.6075000167 0.002499999944 0.02749999985 0
0.6125000119 0.002499999944 0.02250000089 0
0.6175000072 0.002499999944 0.02250000089 0
0.6125000119 0.002499999944 0.02749999985 0
0.6175000072 0.002499999944 0.02749999985 0
0.6025000215 0.002499999944 0.03249999881 0
0.6075000167 0.002499999944 0.03249999881 0
0.6025000215 0.002499999944 0.03750000149 0
0.6075000167 0.002499999944 0.03750000149 0
0.6125000119 0.002499999944 0.03249999881 0
0.6175000072 0.002499999944 0.03249999881 0
0.6125000119 0.002499999944 0.03750000149 0
0.6175000072 0.002499999944 0.03750000149 0
0.6225000024 0.002499999944 0.02250000089 0
0.6274999976 0.002499999944 0.02250000089 0
0.6225000024 0.002499999944 0.02749999985 0
0.6274999976 0.002499999944 0.02749999985 0
0.6324999928 0.002499999944 0.02250000089 0
0.6374999881 0.002499999944 0.02250000089 0
0.6324999928 0.002499999944 0.02749999985 0
0.6374999881 0.002499999944 0.02749999985 0
0.6225000024 0.002499999944 0.03249999881 0
0.6274999976 0.002499999944 0.03249999881 0
0.6225000024 0.002499999944 0.03750000149 0
0.6274999976 0.002499999944 0.03750000149 0
0.6324999928 0.002499999944 0.03249999881 0
0.6374999881 0.002499999944 0.03249999881 0
0.6324999928 0.002499999944 0.03750000149 0
0.6374999881 0.002499999944 0.03750000149 0
0.6025000215 0.002499999944 0.04250000045 0
0.6075000167 0.002499999944 0.04250000045 0
0.6075000167 0.002499999944 0.0474999994 0
0.6125000119 0.002499999944 0.04250000045 0
0.6175000072 0.002499999944 0.04250000045 0
0.6125000119 0.002499999944 0.0474999994 0
0.6175000072 0.002499999944 0.0474999994 0
0.6225000024 0.002499999944 0.04250000045 0
0.6274999976 0.002499999944 0.04250000045 0
0.6225000024 0.002499999944 0.0474999994 0
0.6274999976 0.002499999944 0.0474999994 0
0.6324999928 0.002499999944 0.04250000045 0
0.6374999881 0.002499999944 0.04250000045 0
0.6374999881 0.002499999944 0.0474999994 0
0.6424999833 0.002499999944 0.01250000019 0
0.6474999785 0.002499999944 0.01250000019 0
0.6424999833 0.002499999944 0.01750000007 0
0.6474999785 0.002499999944 0.01750000007 0
0.6424999833 0.002499999944 0.02250000089 0
0.6474999785 0.002499999944 0.02250000089 0
0.6424999833 0.002499999944 0.02749999985 0
0.6474999785 0.002499999944 0.02749999985 0
0.6424999833 0.002499999944 0.03249999881 0
0.6474999785 0.002499999944 0.03249999881 0
0.6424999833 0.002499999944 0.03750000149 0
0.6474999785 0.002499999944 0.03750000149 0
0.6424999833 0.002499999944 0.04250000045 0
0.6474999785 0.002499999944 0.04250000045 0
0.6424999833 0.002499999944 0.0474999994 0
0.6474999785 0.002499999944 0.0474999994 0
0.6524999738 0.002499999944 0.0474999994 0
