# .PCD v0.7 - Point Cloud Data file format
VERSION 0.7
FIELDS x y z rgb
SIZE 4 4 4 4
TYPE F F F F
COUNT 1 1 1 1
WIDTH 1223
HEIGHT 1
VIEWPOINT 0 0 0 1 0 0 0
POINTS 1223
DATA ascii
0.7624999881 1.567499995 0.01750000007 0
0.7624999881 1.577499986 0.01750000007 0
0.7875000238 1.5625 0.01750000007 0
0.7825000286 1.57249999 0.01750000007 0
0.7774999738 1.597499967 0.01750000007 0
0.7825000286 1.582499981 0.01750000007 0
0.7225000262 1.522500038 0.0474999994 0
0.7475000024 1.522500038 0.0474999994 0
0.7475000024 1.532500029 0.0474999994 0
0.7375000119 1.55250001 0.0474999994 0
0.7425000072 1.542500019 0.0474999994 0
0.7375000119 1.522500038 0.06750000268 0
0.7325000167 1.527500033 0.06750000268 0
0.7275000215 1.537500024 0.06750000268 0
0.7225000262 1.547500014 0.06750000268 0
0.7574999928 1.547500014 0.07249999791 0
0.7524999976 1.55250001 0.07249999791 0
0.7774999738 1.522500038 0.0474999994 0
0.7724999785 1.532500029 0.0474999994 0
0.7674999833 1.542500019 0.0474999994 0
0.7624999881 1.55250001 0.0474999994 0
0.7975000143 1.542500019 0.05249999836 0
0.7925000191 1.557500005 0.05249999836 0
0.7674999833 1.527500033 0.07249999791 0
0.7724999785 1.522500038 0.07249999791 0
0.7624999881 1.537500024 0.07249999791 0
0.7975000143 1.537500024 0.0775000006 0
0.7925000191 1.542500019 0.0775000006 0
0.7875000238 1.55250001 0.0775000006 0
0.7325000167 1.567499995 0.0474999994 0
0.7275000215 1.577499986 0.0474999994 0
0.7574999928 1.567499995 0.0474999994 0
0.7524999976 1.577499986 0.0474999994 0
0.7225000262 1.587499976 0.0474999994 0
0.7475000024 1.587499976 0.0474999994 0
0.7425000072 1.597499967 0.0474999994 0
0.7375000119 1.577499986 0.06750000268 0
0.7475000024 1.5625 0.07249999791 0
0.7425000072 1.57249999 0.07249999791 0
0.7275000215 1.587499976 0.06750000268 0
0.7225000262 1.597499967 0.06750000268 0
0.7875000238 1.567499995 0.05249999836 0
0.7825000286 1.577499986 0.05249999836 0
0.7774999738 1.587499976 0.05249999836 0
0.7774999738 1.57249999 0.0775000006 0
0.7724999785 1.577499986 0.0775000006 0
0.7825000286 1.5625 0.0775000006 0
0.7674999833 1.587499976 0.07249999791 0
0.7624999881 1.597499967 0.07249999791 0
0.7975000143 1.597499967 0.0775000006 0
0.8174999952 1.44749999 0.01750000007 0
0.8174999952 1.457499981 0.01750000007 0
0.8125 1.467499971 0.01750000007 0
0.8374999762 1.452499986 0.02250000089 0
0.8374999762 1.462499976 0.02250000089 0
0.8324999809 1.477499962 0.02250000089 0
0.8424999714 1.442499995 0.02250000089 0
0.8575000167 1.457499981 0.02250000089 0
0.8625000119 1.44749999 0.02250000089 0
0.8575000167 1.467499971 0.02250000089 0
0.8774999976 1.477499962 0.02250000089 0
0.8125 1.482499957 0.01750000007 0
0.8075000048 1.492499948 0.01750000007 0
0.8025000095 1.502500057 0.01750000007 0
0.8025000095 1.512500048 0.01750000007 0
0.8324999809 1.487499952 0.02250000089 0
0.8274999857 1.497499943 0.02250000089 0
0.8224999905 1.507500052 0.02250000089 0
0.8525000215 1.482499957 0.02250000089 0
0.8525000215 1.492499948 0.02250000089 0
0.8774999976 1.487499952 0.02250000089 0
0.8725000024 1.497499943 0.02250000089 0
0.8475000262 1.502500057 0.02250000089 0
0.8475000262 1.517500043 0.02250000089 0
0.8675000072 1.507500052 0.02250000089 0
0.8125 1.442499995 0.0474999994 0
0.8075000048 1.452499986 0.0474999994 0
0.8374999762 1.452499986 0.05249999836 0
0.8075000048 1.462499976 0.0474999994 0
0.8025000095 1.472499967 0.0474999994 0
0.8324999809 1.462499976 0.05249999836 0
0.8274999857 1.472499967 0.05249999836 0
0.8075000048 1.467499971 0.0775000006 0
0.8025000095 1.472499967 0.0775000006 0
0.8424999714 1.442499995 0.05249999836 0
0.8675000072 1.442499995 0.05249999836 0
0.8675000072 1.452499986 0.05249999836 0
0.8575000167 1.472499967 0.05249999836 0
0.8625000119 1.462499976 0.05249999836 0
0.8224999905 1.482499957 0.05249999836 0
0.8224999905 1.492499948 0.05249999836 0
0.8174999952 1.502500057 0.05249999836 0
0.8125 1.512500048 0.05249999836 0
0.8525000215 1.482499957 0.05249999836 0
0.8475000262 1.492499948 0.05249999836 0
0.8774999976 1.492499948 0.05249999836 0
0.8424999714 1.502500057 0.05249999836 0
0.8424999714 1.512500048 0.05249999836 0
0.8725000024 1.502500057 0.05249999836 0
0.8675000072 1.512500048 0.05249999836 0
0.8874999881 1.442499995 0.02250000089 0
0.8824999928 1.452499986 0.02250000089 0
0.9075000286 1.44749999 0.02250000089 0
0.9075000286 1.457499981 0.02250000089 0
0.8824999928 1.462499976 0.02250000089 0
0.9024999738 1.467499971 0.02250000089 0
0.9325000048 1.442499995 0.02250000089 0
0.9325000048 1.452499986 0.02250000089 0
0.9574999809 1.44749999 0.02250000089 0
0.9524999857 1.457499981 0.02250000089 0
0.9275000095 1.462499976 0.02250000089 0
0.9275000095 1.477499962 0.02250000089 0
0.9524999857 1.467499971 0.02250000089 0
0.8974999785 1.492499948 0.02250000089 0
0.9024999738 1.482499957 0.02250000089 0
0.9175000191 1.497499943 0.02250000089 0
0.8924999833 1.502500057 0.02250000089 0
0.8924999833 1.517500043 0.02250000089 0
0.9175000191 1.512500048 0.02250000089 0
0.9225000143 1.487499952 0.02250000089 0
0.9474999905 1.482499957 0.02250000089 0
0.9474999905 1.492499948 0.02250000089 0
0.9424999952 1.507500052 0.02250000089 0
0.9424999952 1.517500043 0.02250000089 0
0.8924999833 1.44749999 0.05750000104 0
0.8924999833 1.457499981 0.05750000104 0
0.8874999881 1.472499967 0.05750000104 0
0.9175000191 1.467499971 0.05750000104 0
0.9225000143 1.44749999 0.05750000104 0
0.9225000143 1.457499981 0.05750000104 0
0.9524999857 1.44749999 0.05750000104 0
0.9524999857 1.457499981 0.05750000104 0
0.9474999905 1.467499971 0.05750000104 0
0.9424999952 1.477499962 0.05750000104 0
0.8824999928 1.482499957 0.05750000104 0
0.9125000238 1.482499957 0.05750000104 0
0.9075000286 1.492499948 0.05750000104 0
0.9024999738 1.502500057 0.05750000104 0
0.9024999738 1.512500048 0.05750000104 0
0.9375 1.492499948 0.05750000104 0
0.9375 1.502500057 0.05750000104 0
0.9325000048 1.512500048 0.05750000104 0
0.8174999952 1.532500029 0.02250000089 0
0.8224999905 1.522500038 0.02250000089 0
0.8374999762 1.537500024 0.02250000089 0
0.8125 1.542500019 0.02250000089 0
0.8125 1.557500005 0.02250000089 0
0.8374999762 1.55250001 0.02250000089 0
0.8424999714 1.527500033 0.02250000089 0
0.8675000072 1.522500038 0.02250000089 0
0.8625000119 1.532500029 0.02250000089 0
0.8575000167 1.557500005 0.02250000089 0
0.8625000119 1.547500014 0.02250000089 0
0.8075000048 1.567499995 0.02250000089 0
0.8075000048 1.577499986 0.02250000089 0
0.8324999809 1.5625 0.02250000089 0
0.8274999857 1.577499986 0.02250000089 0
0.8025000095 1.592499971 0.02250000089 0
0.8274999857 1.587499976 0.02250000089 0
0.8525000215 1.57249999 0.02250000089 0
0.8774999976 1.577499986 0.02250000089 0
0.8525000215 1.582499981 0.02250000089 0
0.8475000262 1.597499967 0.02250000089 0
0.8725000024 1.592499971 0.02250000089 0
0.8075000048 1.522500038 0.05249999836 0
0.8025000095 1.532500029 0.05249999836 0
0.8374999762 1.522500038 0.05249999836 0
0.8324999809 1.532500029 0.05249999836 0
0.8274999857 1.542500019 0.05249999836 0
0.8224999905 1.557500005 0.05249999836 0
0.8025000095 1.527500033 0.0775000006 0
0.8675000072 1.522500038 0.05249999836 0
0.8625000119 1.532500029 0.05249999836 0
0.8575000167 1.547500014 0.05249999836 0
0.8525000215 1.557500005 0.05249999836 0
0.8174999952 1.567499995 0.05249999836 0
0.8125 1.577499986 0.05249999836 0
0.8075000048 1.587499976 0.05249999836 0
0.8374999762 1.592499971 0.05249999836 0
0.8475000262 1.567499995 0.05249999836 0
0.8424999714 1.577499986 0.05249999836 0
0.8774999976 1.567499995 0.05750000104 0
0.8725000024 1.577499986 0.05750000104 0
0.8675000072 1.592499971 0.05750000104 0
0.8874999881 1.527500033 0.02250000089 0
0.9125000238 1.522500038 0.02250000089 0
0.9125000238 1.537500024 0.02250000089 0
0.8874999881 1.542500019 0.02250000089 0
0.8824999928 1.55250001 0.02250000089 0
0.9075000286 1.547500014 0.02250000089 0
0.9375 1.527500033 0.02250000089 0
0.9375 1.542500019 0.02250000089 0
0.9325000048 1.557500005 0.02250000089 0
0.9574999809 1.547500014 0.02749999985 0
0.8824999928 1.567499995 0.02250000089 0
0.9075000286 1.5625 0.02250000089 0
0.9024999738 1.57249999 0.02250000089 0
0.8974999785 1.597499967 0.02250000089 0
0.9024999738 1.587499976 0.02250000089 0
0.9275000095 1.567499995 0.02250000089 0
0.9574999809 1.5625 0.02749999985 0
0.9524999857 1.577499986 0.02749999985 0
0.9275000095 1.582499981 0.02250000089 0
0.9225000143 1.592499971 0.02250000089 0
0.9524999857 1.587499976 0.02749999985 0
0.8974999785 1.522500038 0.05750000104 0
0.8924999833 1.532500029 0.05750000104 0
0.8874999881 1.547500014 0.05750000104 0
0.8824999928 1.557500005 0.05750000104 0
0.9175000191 1.547500014 0.05750000104 0
0.9125000238 1.557500005 0.05750000104 0
0.9275000095 1.522500038 0.05750000104 0
0.9225000143 1.532500029 0.05750000104 0
0.9574999809 1.522500038 0.0625 0
0.9574999809 1.532500029 0.0625 0
0.9524999857 1.547500014 0.0625 0
0.9474999905 1.557500005 0.0625 0
0.9125000238 1.567499995 0.05750000104 0
0.9075000286 1.582499981 0.05750000104 0
0.9024999738 1.592499971 0.05750000104 0
0.9424999952 1.567499995 0.0625 0
0.9375 1.582499981 0.0625 0
0.9325000048 1.592499971 0.0625 0
0.8174999952 1.452499986 0.08250000328 0
0.8125 1.457499981 0.08250000328 0
0.8224999905 1.442499995 0.08250000328 0
0.8374999762 1.472499967 0.08250000328 0
0.8575000167 1.442499995 0.08749999851 0
0.8475000262 1.457499981 0.08749999851 0
0.8525000215 1.452499986 0.08749999851 0
0.8424999714 1.467499971 0.08749999851 0
0.8725000024 1.472499967 0.08749999851 0
0.8774999976 1.462499976 0.09250000119 0
0.8274999857 1.487499952 0.08250000328 0
0.8324999809 1.482499957 0.08250000328 0
0.8224999905 1.497499943 0.08250000328 0
0.8174999952 1.502500057 0.08250000328 0
0.8125 1.512500048 0.08250000328 0
0.8575000167 1.497499943 0.08749999851 0
0.8675000072 1.482499957 0.08749999851 0
0.8625000119 1.487499952 0.08749999851 0
0.8525000215 1.502500057 0.08749999851 0
0.8475000262 1.512500048 0.08749999851 0
0.8424999714 1.517500043 0.08749999851 0
0.8924999833 1.442499995 0.09250000119 0
0.8874999881 1.452499986 0.09250000119 0
0.8824999928 1.457499981 0.09250000119 0
0.9175000191 1.457499981 0.09749999642 0
0.9125000238 1.462499976 0.09749999642 0
0.9024999738 1.477499962 0.09250000119 0
0.9075000286 1.472499967 0.09749999642 0
0.9275000095 1.442499995 0.09749999642 0
0.9225000143 1.44749999 0.09749999642 0
0.9574999809 1.44749999 0.1024999991 0
0.9524999857 1.457499981 0.1024999991 0
0.9375 1.477499962 0.1024999991 0
0.9474999905 1.462499976 0.1024999991 0
0.9424999952 1.472499967 0.1024999991 0
0.8974999785 1.487499952 0.09250000119 0
0.8924999833 1.492499948 0.09250000119 0
0.8924999833 1.502500057 0.09250000119 0
0.8874999881 1.512500048 0.09250000119 0
0.8824999928 1.517500043 0.09250000119 0
0.9175000191 1.517500043 0.09749999642 0
0.9325000048 1.487499952 0.09749999642 0
0.9325000048 1.492499948 0.09749999642 0
0.9275000095 1.502500057 0.09749999642 0
0.9225000143 1.507500052 0.09749999642 0
0.9574999809 1.507500052 0.1024999991 0
0.9524999857 1.517500043 0.1024999991 0
0.8075000048 1.522500038 0.08250000328 0
0.8374999762 1.527500033 0.08749999851 0
0.8324999809 1.537500024 0.08250000328 0
0.8274999857 1.542500019 0.08250000328 0
0.8224999905 1.55250001 0.08250000328 0
0.8774999976 1.527500033 0.09250000119 0
0.8725000024 1.537500024 0.09250000119 0
0.8675000072 1.542500019 0.08749999851 0
0.8625000119 1.55250001 0.08749999851 0
0.8174999952 1.5625 0.08250000328 0
0.8125 1.567499995 0.08250000328 0
0.8075000048 1.577499986 0.08250000328 0
0.8025000095 1.587499976 0.08250000328 0
0.8374999762 1.597499967 0.08749999851 0
0.8575000167 1.5625 0.08749999851 0
0.8525000215 1.567499995 0.08749999851 0
0.8475000262 1.577499986 0.08749999851 0
0.8424999714 1.587499976 0.08749999851 0
0.8774999976 1.587499976 0.09250000119 0
0.8725000024 1.597499967 0.09250000119 0
0.9125000238 1.527500033 0.09749999642 0
0.9075000286 1.532500029 0.09749999642 0
0.8974999785 1.55250001 0.09250000119 0
0.9024999738 1.542500019 0.09749999642 0
0.9325000048 1.557500005 0.09749999642 0
0.9474999905 1.527500033 0.1024999991 0
0.9424999952 1.532500029 0.1024999991 0
0.9375 1.542500019 0.1024999991 0
0.9375 1.55250001 0.1024999991 0
0.8874999881 1.567499995 0.09250000119 0
0.8924999833 1.5625 0.09250000119 0
0.8824999928 1.577499986 0.09250000119 0
0.9175000191 1.587499976 0.09749999642 0
0.9125000238 1.597499967 0.09749999642 0
0.9275000095 1.567499995 0.09749999642 0
0.9225000143 1.577499986 0.09749999642 0
0.9574999809 1.577499986 0.1024999991 0
0.9524999857 1.587499976 0.1024999991 0
0.9524999857 1.592499971 0.1024999991 0
0.9674999714 1.282500029 0.02250000089 0
0.9674999714 1.292500019 0.02250000089 0
0.9925000072 1.287500024 0.02749999985 0
0.9875000119 1.297500014 0.02749999985 0
0.9624999762 1.30250001 0.02250000089 0
0.9624999762 1.3125 0.02250000089 0
0.9875000119 1.307500005 0.02749999985 0
0.9825000167 1.317499995 0.02250000089 0
1.012500048 1.287500024 0.02749999985 0
1.012500048 1.297500014 0.02749999985 0
1.037500024 1.282500029 0.02749999985 0
1.037500024 1.292500019 0.02749999985 0
1.007500052 1.307500005 0.02749999985 0
1.007500052 1.317499995 0.02749999985 0
1.032500029 1.30250001 0.02749999985 0
1.032500029 1.3125 0.02749999985 0
0.9775000215 1.337499976 0.02250000089 0
0.9825000167 1.327499986 0.02250000089 0
0.9775000215 1.347499967 0.02250000089 0
0.9775000215 1.357499957 0.02250000089 0
1.002500057 1.332499981 0.02749999985 0
1.027500033 1.32249999 0.02749999985 0
1.027500033 1.332499981 0.02749999985 0
1.002500057 1.342499971 0.02749999985 0
1.002500057 1.352499962 0.02749999985 0
1.027500033 1.342499971 0.02749999985 0
1.022500038 1.357499957 0.02749999985 0
0.9624999762 1.287500024 0.05750000104 0
0.9875000119 1.282500029 0.05750000104 0
0.9825000167 1.292500019 0.05750000104 0
0.9825000167 1.297500014 0.05750000104 0
0.9775000215 1.307500005 0.05750000104 0
0.9725000262 1.317499995 0.05750000104 0
1.007500052 1.307500005 0.05750000104 0
1.002500057 1.317499995 0.05750000104 0
1.017500043 1.282500029 0.0625 0
1.012500048 1.287500024 0.0625 0
1.007500052 1.297500014 0.0625 0
1.037500024 1.297500014 0.0625 0
1.037500024 1.30250001 0.0625 0
1.032500029 1.3125 0.0625 0
0.9725000262 1.327499986 0.05750000104 0
0.9674999714 1.332499981 0.05750000104 0
0.9975000024 1.32249999 0.05750000104 0
0.9975000024 1.332499981 0.05750000104 0
0.9624999762 1.342499971 0.05750000104 0
0.9624999762 1.352499962 0.05750000104 0
0.9925000072 1.342499971 0.05750000104 0
0.9925000072 1.352499962 0.05750000104 0
1.027500033 1.32249999 0.0625 0
1.027500033 1.332499981 0.0625 0
1.017500043 1.347499967 0.0625 0
1.017500043 1.357499957 0.0625 0
1.022500038 1.342499971 0.0625 0
1.057500005 1.297500014 0.02749999985 0
1.0625 1.287500024 0.02749999985 0
1.057500005 1.307500005 0.02749999985 0
1.057500005 1.317499995 0.02749999985 0
1.087499976 1.287500024 0.02749999985 0
1.082499981 1.297500014 0.02749999985 0
1.112499952 1.282500029 0.02749999985 0
1.112499952 1.292500019 0.02749999985 0
1.082499981 1.307500005 0.02749999985 0
1.082499981 1.317499995 0.02749999985 0
1.107499957 1.30250001 0.02749999985 0
1.107499957 1.3125 0.02749999985 0
1.05250001 1.327499986 0.02749999985 0
1.05250001 1.337499976 0.02749999985 0
1.077499986 1.332499981 0.02749999985 0
1.05250001 1.347499967 0.02749999985 0
1.047500014 1.357499957 0.02749999985 0
1.077499986 1.342499971 0.02749999985 0
1.077499986 1.352499962 0.02749999985 0
1.117499948 1.327499986 0.01250000019 0
1.112499952 1.337499976 0.01250000019 0
1.112499952 1.347499967 0.01250000019 0
1.107499957 1.32249999 0.02749999985 0
1.102499962 1.332499981 0.02749999985 0
1.102499962 1.342499971 0.02749999985 0
1.102499962 1.357499957 0.02749999985 0
1.042500019 1.287500024 0.0625 0
1.07249999 1.282500029 0.0625 0
1.067499995 1.292500019 0.0625 0
1.0625 1.30250001 0.0625 0
1.0625 1.3125 0.0625 0
1.097499967 1.292500019 0.06750000268 0
1.102499962 1.282500029 0.06750000268 0
1.092499971 1.30250001 0.06750000268 0
1.092499971 1.307500005 0.06750000268 0
1.087499976 1.317499995 0.06750000268 0
1.057500005 1.32249999 0.0625 0
1.057500005 1.327499986 0.0625 0
1.05250001 1.337499976 0.0625 0
1.047500014 1.347499967 0.0625 0
1.047500014 1.357499957 0.0625 0
1.077499986 1.357499957 0.06750000268 0
1.087499976 1.327499986 0.06750000268 0
1.082499981 1.337499976 0.06750000268 0
1.117499948 1.327499986 0.06750000268 0
1.112499952 1.337499976 0.06750000268 0
1.082499981 1.347499967 0.06750000268 0
1.112499952 1.342499971 0.06750000268 0
1.107499957 1.352499962 0.06750000268 0
0.9725000262 1.367499948 0.02250000089 0
0.9725000262 1.377500057 0.02250000089 0
0.9975000024 1.362499952 0.02749999985 0
0.9975000024 1.372499943 0.02749999985 0
0.9674999714 1.392500043 0.02250000089 0
0.9925000072 1.382500052 0.02749999985 0
0.9925000072 1.392500043 0.02749999985 0
1.017500043 1.377500057 0.02749999985 0
1.022500038 1.367499948 0.02749999985 0
1.017500043 1.387500048 0.02749999985 0
1.017500043 1.397500038 0.02749999985 0
0.9674999714 1.402500033 0.02250000089 0
0.9624999762 1.412500024 0.02250000089 0
0.9875000119 1.407500029 0.02749999985 0
0.9875000119 1.417500019 0.02749999985 0
0.9624999762 1.422500014 0.02250000089 0
0.9825000167 1.42750001 0.02749999985 0
1.012500048 1.412500024 0.02749999985 0
1.037500024 1.417500019 0.02749999985 0
1.012500048 1.422500014 0.02749999985 0
1.007500052 1.432500005 0.02749999985 0
1.037500024 1.42750001 0.02749999985 0
1.032500029 1.4375 0.02749999985 0
0.9775000215 1.377500057 0.05750000104 0
0.9875000119 1.362499952 0.05750000104 0
0.9825000167 1.367499948 0.05750000104 0
0.9775000215 1.387500048 0.05750000104 0
0.9725000262 1.397500038 0.05750000104 0
1.012500048 1.367499948 0.0625 0
1.007500052 1.377500057 0.0625 0
1.007500052 1.387500048 0.0625 0
1.002500057 1.397500038 0.0625 0
1.037500024 1.387500048 0.0625 0
1.032500029 1.397500038 0.0625 0
0.9674999714 1.407500029 0.05750000104 0
0.9674999714 1.417500019 0.05750000104 0
0.9624999762 1.42750001 0.05750000104 0
0.9975000024 1.407500029 0.0625 0
0.9975000024 1.417500019 0.0625 0
0.9925000072 1.42750001 0.0625 0
0.9875000119 1.4375 0.0625 0
1.032500029 1.407500029 0.0625 0
1.027500033 1.417500019 0.0625 0
1.022500038 1.42750001 0.0625 0
1.022500038 1.4375 0.0625 0
1.047500014 1.372499943 0.02749999985 0
1.07249999 1.362499952 0.02749999985 0
1.07249999 1.372499943 0.02749999985 0
1.042500019 1.382500052 0.02749999985 0
1.042500019 1.392500043 0.02749999985 0
1.067499995 1.387500048 0.02749999985 0
1.067499995 1.397500038 0.02749999985 0
1.097499967 1.367499948 0.02749999985 0
1.097499967 1.377500057 0.02749999985 0
1.097499967 1.392500043 0.02749999985 0
1.042500019 1.402500033 0.02749999985 0
1.067499995 1.407500029 0.02749999985 0
1.0625 1.422500014 0.02749999985 0
1.0625 1.432500005 0.02749999985 0
1.117499948 1.42750001 0.01250000019 0
1.117499948 1.4375 0.01250000019 0
1.092499971 1.402500033 0.02749999985 0
1.092499971 1.412500024 0.02749999985 0
1.117499948 1.417500019 0.03249999881 0
1.092499971 1.42750001 0.02749999985 0
1.087499976 1.4375 0.02749999985 0
1.117499948 1.432500005 0.03249999881 0
1.042500019 1.367499948 0.0625 0
1.042500019 1.377500057 0.0625 0
1.07249999 1.367499948 0.06750000268 0
1.07249999 1.377500057 0.06750000268 0
1.067499995 1.382500052 0.06750000268 0
1.067499995 1.392500043 0.06750000268 0
1.107499957 1.362499952 0.06750000268 0
1.102499962 1.372499943 0.06750000268 0
1.097499967 1.392500043 0.06750000268 0
1.102499962 1.382500052 0.06750000268 0
1.057500005 1.417500019 0.06750000268 0
1.0625 1.402500033 0.06750000268 0
1.057500005 1.42750001 0.06750000268 0
1.05250001 1.4375 0.06750000268 0
1.092499971 1.402500033 0.06750000268 0
1.092499971 1.412500024 0.06750000268 0
1.087499976 1.422500014 0.06750000268 0
1.087499976 1.4375 0.06750000268 0
1.117499948 1.432500005 0.07249999791 0
0.9775000215 1.297500014 0.1024999991 0
0.9875000119 1.287500024 0.1024999991 0
0.9925000072 1.282500029 0.1075000018 0
0.9825000167 1.292500019 0.1024999991 0
0.9775000215 1.307500005 0.1024999991 0
0.9674999714 1.317499995 0.1024999991 0
0.9725000262 1.3125 0.1024999991 0
1.017500043 1.287500024 0.1075000018 0
1.012500048 1.292500019 0.1075000018 0
1.012500048 1.297500014 0.1075000018 0
1.022500038 1.282500029 0.112499997 0
1.007500052 1.30250001 0.1075000018 0
1.002500057 1.307500005 0.1075000018 0
1.002500057 1.317499995 0.1075000018 0
1.037500024 1.30250001 0.112499997 0
1.037500024 1.307500005 0.112499997 0
1.032500029 1.3125 0.112499997 0
0.9674999714 1.32249999 0.1024999991 0
0.9624999762 1.327499986 0.1024999991 0
0.9975000024 1.32249999 0.1075000018 0
0.9925000072 1.327499986 0.1075000018 0
0.9875000119 1.332499981 0.1075000018 0
0.9775000215 1.352499962 0.1024999991 0
0.9725000262 1.357499957 0.1024999991 0
0.9825000167 1.347499967 0.1024999991 0
0.9875000119 1.342499971 0.1075000018 0
1.017500043 1.337499976 0.112499997 0
1.027500033 1.32249999 0.112499997 0
1.022500038 1.327499986 0.112499997 0
1.022500038 1.332499981 0.112499997 0
1.007500052 1.357499957 0.1075000018 0
1.012500048 1.352499962 0.1075000018 0
1.012500048 1.347499967 0.112499997 0
1.037500024 1.357499957 0.112499997 0
1.047500014 1.282500029 0.112499997 0
1.047500014 1.292500019 0.112499997 0
1.042500019 1.297500014 0.112499997 0
1.077499986 1.282500029 0.1174999997 0
1.077499986 1.287500024 0.1174999997 0
1.07249999 1.297500014 0.1174999997 0
1.067499995 1.307500005 0.1174999997 0
1.07249999 1.30250001 0.1174999997 0
1.0625 1.3125 0.1174999997 0
1.0625 1.317499995 0.1174999997 0
1.057500005 1.327499986 0.1174999997 0
1.05250001 1.332499981 0.1174999997 0
1.05250001 1.337499976 0.1174999997 0
1.047500014 1.342499971 0.1174999997 0
1.042500019 1.352499962 0.112499997 0
1.077499986 1.347499967 0.1174999997 0
1.07249999 1.357499957 0.1174999997 0
1.107499957 1.287500024 0.1225000024 0
1.112499952 1.282500029 0.1225000024 0
1.102499962 1.292500019 0.1225000024 0
1.102499962 1.297500014 0.1225000024 0
1.097499967 1.307500005 0.1225000024 0
1.097499967 1.3125 0.1225000024 0
1.092499971 1.317499995 0.1225000024 0
1.077499986 1.342499971 0.1225000024 0
1.087499976 1.32249999 0.1225000024 0
1.087499976 1.332499981 0.1225000024 0
1.082499981 1.337499976 0.1225000024 0
1.117499948 1.327499986 0.1274999976 0
1.117499948 1.337499976 0.1274999976 0
1.107499957 1.347499967 0.1225000024 0
1.112499952 1.342499971 0.1274999976 0
1.107499957 1.352499962 0.1225000024 0
0.9725000262 1.367499948 0.1024999991 0
0.9674999714 1.372499943 0.1024999991 0
0.9624999762 1.377500057 0.1024999991 0
0.9975000024 1.372499943 0.1075000018 0
0.9975000024 1.377500057 0.1075000018 0
0.9925000072 1.382500052 0.1075000018 0
0.9875000119 1.392500043 0.1075000018 0
0.9825000167 1.397500038 0.1075000018 0
1.002500057 1.362499952 0.1075000018 0
1.037500024 1.362499952 0.112499997 0
1.027500033 1.377500057 0.112499997 0
1.032500029 1.372499943 0.112499997 0
1.017500043 1.397500038 0.112499997 0
1.027500033 1.382500052 0.112499997 0
1.022500038 1.392500043 0.112499997 0
0.9725000262 1.417500019 0.1024999991 0
0.9775000215 1.412500024 0.1075000018 0
0.9825000167 1.407500029 0.1075000018 0
0.9674999714 1.42750001 0.1024999991 0
0.9624999762 1.432500005 0.1024999991 0
0.9975000024 1.432500005 0.1075000018 0
0.9975000024 1.4375 0.1075000018 0
1.007500052 1.417500019 0.1075000018 0
1.012500048 1.402500033 0.112499997 0
1.012500048 1.412500024 0.112499997 0
1.002500057 1.42750001 0.1075000018 0
1.037500024 1.422500014 0.112499997 0
1.032500029 1.432500005 0.112499997 0
1.032500029 1.4375 0.112499997 0
1.067499995 1.362499952 0.1174999997 0
1.067499995 1.367499948 0.1174999997 0
1.0625 1.377500057 0.1174999997 0
1.057500005 1.382500052 0.1174999997 0
1.057500005 1.387500048 0.1174999997 0
1.05250001 1.397500038 0.1174999997 0
1.047500014 1.402500033 0.1174999997 0
1.047500014 1.407500029 0.1174999997 0
1.042500019 1.417500019 0.1174999997 0
1.067499995 1.432500005 0.1174999997 0
1.067499995 1.4375 0.1174999997 0
1.097499967 1.367499948 0.1225000024 0
1.097499967 1.372499943 0.1225000024 0
1.102499962 1.362499952 0.1225000024 0
1.092499971 1.382500052 0.1225000024 0
1.092499971 1.387500048 0.1225000024 0
1.087499976 1.392500043 0.1225000024 0
1.077499986 1.407500029 0.1225000024 0
1.077499986 1.417500019 0.1225000024 0
1.07249999 1.422500014 0.1225000024 0
1.082499981 1.402500033 0.1225000024 0
1.117499948 1.402500033 0.1274999976 0
1.112499952 1.407500029 0.1274999976 0
1.112499952 1.412500024 0.1274999976 0
1.107499957 1.422500014 0.1274999976 0
1.102499962 1.42750001 0.1274999976 0
1.102499962 1.4375 0.1225000024 0
1.132500052 1.287500024 0.01250000019 0
1.127500057 1.297500014 0.01250000019 0
1.157500029 1.292500019 0.01250000019 0
1.127500057 1.30250001 0.01250000019 0
1.122499943 1.3125 0.01250000019 0
1.157500029 1.30250001 0.01250000019 0
1.152500033 1.3125 0.01250000019 0
1.137500048 1.282500029 0.03249999881 0
1.137500048 1.292500019 0.03249999881 0
1.137500048 1.30250001 0.03249999881 0
1.132500052 1.317499995 0.03249999881 0
1.162500024 1.287500024 0.01250000019 0
1.19749999 1.282500029 0.01250000019 0
1.192499995 1.292500019 0.01250000019 0
1.1875 1.30250001 0.01250000019 0
1.1875 1.3125 0.01250000019 0
1.162500024 1.287500024 0.03249999881 0
1.162500024 1.297500014 0.03249999881 0
1.192499995 1.287500024 0.03249999881 0
1.192499995 1.297500014 0.03249999881 0
1.162500024 1.307500005 0.03249999881 0
1.162500024 1.317499995 0.03249999881 0
1.192499995 1.3125 0.03249999881 0
1.122499943 1.32249999 0.01250000019 0
1.147500038 1.327499986 0.01250000019 0
1.152500033 1.32249999 0.01250000019 0
1.147500038 1.337499976 0.01250000019 0
1.142500043 1.347499967 0.01250000019 0
1.142500043 1.357499957 0.01250000019 0
1.132500052 1.327499986 0.03249999881 0
1.132500052 1.337499976 0.03249999881 0
1.157500029 1.332499981 0.03249999881 0
1.127500057 1.347499967 0.03249999881 0
1.157500029 1.342499971 0.03249999881 0
1.157500029 1.352499962 0.03249999881 0
1.17750001 1.337499976 0.01250000019 0
1.182500005 1.32249999 0.01250000019 0
1.182500005 1.327499986 0.01250000019 0
1.17750001 1.347499967 0.01250000019 0
1.172500014 1.357499957 0.01250000019 0
1.1875 1.32249999 0.03249999881 0
1.1875 1.332499981 0.03249999881 0
1.1875 1.347499967 0.03249999881 0
1.182500005 1.357499957 0.03249999881 0
1.127500057 1.287500024 0.06750000268 0
1.132500052 1.282500029 0.06750000268 0
1.127500057 1.297500014 0.06750000268 0
1.157500029 1.287500024 0.06750000268 0
1.157500029 1.297500014 0.06750000268 0
1.122499943 1.307500005 0.06750000268 0
1.122499943 1.317499995 0.06750000268 0
1.152500033 1.307500005 0.06750000268 0
1.152500033 1.3125 0.06750000268 0
1.192499995 1.282500029 0.07249999791 0
1.1875 1.292500019 0.07249999791 0
1.1875 1.30250001 0.07249999791 0
1.182500005 1.3125 0.07249999791 0
1.147500038 1.32249999 0.06750000268 0
1.147500038 1.332499981 0.06750000268 0
1.142500043 1.342499971 0.06750000268 0
1.142500043 1.352499962 0.06750000268 0
1.17750001 1.332499981 0.07249999791 0
1.182500005 1.32249999 0.07249999791 0
1.17750001 1.342499971 0.07249999791 0
1.172500014 1.352499962 0.07249999791 0
1.227499962 1.282500029 0.01250000019 0
1.227499962 1.292500019 0.01250000019 0
1.217499971 1.317499995 0.01250000019 0
1.222499967 1.30250001 0.01250000019 0
1.222499967 1.3125 0.01250000019 0
1.222499967 1.282500029 0.03249999881 0
1.222499967 1.292500019 0.03249999881 0
1.217499971 1.30250001 0.03249999881 0
1.217499971 1.3125 0.03249999881 0
1.262500048 1.282500029 0.01250000019 0
1.262500048 1.292500019 0.01250000019 0
1.257500052 1.30250001 0.01250000019 0
1.257500052 1.3125 0.01250000019 0
1.252500057 1.317499995 0.01250000019 0
1.252500057 1.282500029 0.03249999881 0
1.252500057 1.297500014 0.03249999881 0
1.247499943 1.307500005 0.03249999881 0
1.247499943 1.317499995 0.03249999881 0
1.277500033 1.3125 0.03750000149 0
1.217499971 1.327499986 0.01250000019 0
1.212499976 1.337499976 0.01250000019 0
1.212499976 1.347499967 0.01250000019 0
1.207499981 1.357499957 0.01250000019 0
1.217499971 1.327499986 0.03249999881 0
1.217499971 1.337499976 0.03249999881 0
1.217499971 1.347499967 0.03249999881 0
1.252500057 1.327499986 0.01250000019 0
1.247499943 1.337499976 0.01250000019 0
1.247499943 1.347499967 0.01250000019 0
1.242499948 1.357499957 0.01250000019 0
1.247499943 1.327499986 0.03249999881 0
1.277500033 1.32249999 0.03750000149 0
1.277500033 1.332499981 0.03750000149 0
1.247499943 1.342499971 0.03249999881 0
1.247499943 1.352499962 0.03249999881 0
1.277500033 1.347499967 0.03750000149 0
1.277500033 1.357499957 0.03750000149 0
1.222499967 1.282500029 0.07249999791 0
1.222499967 1.292500019 0.07249999791 0
1.217499971 1.30250001 0.07249999791 0
1.217499971 1.3125 0.07249999791 0
1.212499976 1.317499995 0.07249999791 0
1.257500052 1.287500024 0.0775000006 0
1.252500057 1.297500014 0.0775000006 0
1.252500057 1.307500005 0.0775000006 0
1.247499943 1.317499995 0.0775000006 0
1.212499976 1.327499986 0.07249999791 0
1.212499976 1.337499976 0.07249999791 0
1.207499981 1.347499967 0.07249999791 0
1.207499981 1.357499957 0.07249999791 0
1.247499943 1.327499986 0.0775000006 0
1.242499948 1.337499976 0.0775000006 0
1.277500033 1.337499976 0.0775000006 0
1.242499948 1.347499967 0.0775000006 0
1.242499948 1.357499957 0.0775000006 0
1.277500033 1.347499967 0.0775000006 0
1.277500033 1.357499957 0.0775000006 0
1.137500048 1.362499952 0.01250000019 0
1.137500048 1.372499943 0.01250000019 0
1.132500052 1.382500052 0.01250000019 0
1.127500057 1.392500043 0.01250000019 0
1.127500057 1.362499952 0.03249999881 0
1.127500057 1.372499943 0.03249999881 0
1.157500029 1.362499952 0.03249999881 0
1.152500033 1.377500057 0.03249999881 0
1.122499943 1.382500052 0.03249999881 0
1.122499943 1.397500038 0.03249999881 0
1.152500033 1.387500048 0.03249999881 0
1.172500014 1.367499948 0.01250000019 0
1.167500019 1.372499943 0.01250000019 0
1.167500019 1.382500052 0.01250000019 0
1.162500024 1.392500043 0.01250000019 0
1.19749999 1.382500052 0.01250000019 0
1.19749999 1.392500043 0.01250000019 0
1.182500005 1.367499948 0.03249999881 0
1.182500005 1.382500052 0.03249999881 0
1.182500005 1.392500043 0.03249999881 0
1.127500057 1.402500033 0.01250000019 0
1.122499943 1.412500024 0.01250000019 0
1.122499943 1.417500019 0.01250000019 0
1.157500029 1.402500033 0.01250000019 0
1.157500029 1.412500024 0.01250000019 0
1.152500033 1.422500014 0.01250000019 0
1.152500033 1.432500005 0.01250000019 0
1.122499943 1.407500029 0.03249999881 0
1.152500033 1.402500033 0.03249999881 0
1.147500038 1.412500024 0.03249999881 0
1.147500038 1.422500014 0.03249999881 0
1.147500038 1.4375 0.03249999881 0
1.192499995 1.402500033 0.01250000019 0
1.192499995 1.412500024 0.01250000019 0
1.1875 1.422500014 0.01250000019 0
1.1875 1.432500005 0.01250000019 0
1.17750001 1.407500029 0.03249999881 0
1.17750001 1.417500019 0.03249999881 0
1.17750001 1.432500005 0.03249999881 0
1.137500048 1.362499952 0.06750000268 0
1.137500048 1.372499943 0.06750000268 0
1.132500052 1.382500052 0.07249999791 0
1.132500052 1.392500043 0.07249999791 0
1.172500014 1.362499952 0.07249999791 0
1.167500019 1.372499943 0.07249999791 0
1.167500019 1.382500052 0.07249999791 0
1.162500024 1.392500043 0.07249999791 0
1.19749999 1.387500048 0.07249999791 0
1.127500057 1.402500033 0.07249999791 0
1.122499943 1.412500024 0.07249999791 0
1.157500029 1.412500024 0.07249999791 0
1.122499943 1.422500014 0.07249999791 0
1.157500029 1.422500014 0.07249999791 0
1.152500033 1.432500005 0.07249999791 0
1.162500024 1.402500033 0.07249999791 0
1.19749999 1.402500033 0.07249999791 0
1.192499995 1.412500024 0.07249999791 0
1.192499995 1.422500014 0.07249999791 0
1.1875 1.432500005 0.07249999791 0
1.207499981 1.367499948 0.01250000019 0
1.202499986 1.377500057 0.01250000019 0
1.237499952 1.377500057 0.01250000019 0
1.237499952 1.387500048 0.01250000019 0
1.232499957 1.397500038 0.01250000019 0
1.212499976 1.362499952 0.03249999881 0
1.212499976 1.372499943 0.03249999881 0
1.212499976 1.387500048 0.03249999881 0
1.212499976 1.397500038 0.03249999881 0
1.242499948 1.367499948 0.01250000019 0
1.277500033 1.367499948 0.01250000019 0
1.277500033 1.377500057 0.01250000019 0
1.272500038 1.387500048 0.01250000019 0
1.272500038 1.397500038 0.01250000019 0
1.242499948 1.367499948 0.03249999881 0
1.242499948 1.377500057 0.03249999881 0
1.277500033 1.372499943 0.03750000149 0
1.242499948 1.392500043 0.03249999881 0
1.277500033 1.382500052 0.03750000149 0
1.272500038 1.397500038 0.03750000149 0
1.232499957 1.407500029 0.01250000019 0
1.227499962 1.412500024 0.01250000019 0
1.227499962 1.422500014 0.01250000019 0
1.222499967 1.432500005 0.01250000019 0
1.207499981 1.412500024 0.03249999881 0
1.207499981 1.422500014 0.03249999881 0
1.207499981 1.4375 0.03249999881 0
1.237499952 1.42750001 0.03249999881 0
1.267500043 1.407500029 0.01250000019 0
1.267500043 1.417500019 0.01250000019 0
1.262500048 1.42750001 0.01250000019 0
1.262500048 1.4375 0.01250000019 0
1.242499948 1.402500033 0.03249999881 0
1.242499948 1.417500019 0.03249999881 0
1.272500038 1.407500029 0.03750000149 0
1.272500038 1.422500014 0.03750000149 0
1.272500038 1.4375 0.03750000149 0
1.202499986 1.367499948 0.07249999791 0
1.202499986 1.377500057 0.07249999791 0
1.237499952 1.367499948 0.0775000006 0
1.237499952 1.377500057 0.0775000006 0
1.232499957 1.387500048 0.0775000006 0
1.232499957 1.397500038 0.0775000006 0
1.272500038 1.367499948 0.0775000006 0
1.272500038 1.377500057 0.0775000006 0
1.267500043 1.387500048 0.0775000006 0
1.267500043 1.397500038 0.0775000006 0
1.227499962 1.407500029 0.0775000006 0
1.227499962 1.422500014 0.0775000006 0
1.222499967 1.432500005 0.0775000006 0
1.267500043 1.407500029 0.0775000006 0
1.262500048 1.417500019 0.0775000006 0
1.262500048 1.432500005 0.0775000006 0
1.137500048 1.287500024 0.1274999976 0
1.137500048 1.292500019 0.1274999976 0
1.132500052 1.297500014 0.1274999976 0
1.142500043 1.282500029 0.1274999976 0
1.132500052 1.30250001 0.1274999976 0
1.127500057 1.3125 0.1274999976 0
1.122499943 1.317499995 0.1274999976 0
1.157500029 1.3125 0.1324999928 0
1.172500014 1.282500029 0.1324999928 0
1.167500019 1.292500019 0.1324999928 0
1.167500019 1.297500014 0.1324999928 0
1.19749999 1.297500014 0.137500003 0
1.162500024 1.30250001 0.1324999928 0
1.162500024 1.307500005 0.1324999928 0
1.19749999 1.30250001 0.137500003 0
1.192499995 1.307500005 0.137500003 0
1.1875 1.317499995 0.137500003 0
1.192499995 1.3125 0.137500003 0
1.122499943 1.32249999 0.1274999976 0
1.152500033 1.32249999 0.1324999928 0
1.152500033 1.327499986 0.1324999928 0
1.147500038 1.332499981 0.1324999928 0
1.137500048 1.357499957 0.1274999976 0
1.142500043 1.352499962 0.1274999976 0
1.147500038 1.342499971 0.1324999928 0
1.142500043 1.347499967 0.1324999928 0
1.17750001 1.337499976 0.137500003 0
1.1875 1.327499986 0.137500003 0
1.182500005 1.332499981 0.137500003 0
1.17750001 1.347499967 0.137500003 0
1.172500014 1.357499957 0.1324999928 0
1.172500014 1.352499962 0.137500003 0
1.202499986 1.282500029 0.137500003 0
1.202499986 1.287500024 0.137500003 0
1.237499952 1.282500029 0.1424999982 0
1.232499957 1.287500024 0.1424999982 0
1.227499962 1.297500014 0.1424999982 0
1.232499957 1.292500019 0.1424999982 0
1.227499962 1.307500005 0.1424999982 0
1.222499967 1.3125 0.1424999982 0
1.222499967 1.317499995 0.1424999982 0
1.267500043 1.282500029 0.1474999934 0
1.267500043 1.287500024 0.1474999934 0
1.262500048 1.292500019 0.1474999934 0
1.262500048 1.297500014 0.1474999934 0
1.257500052 1.30250001 0.1474999934 0
1.257500052 1.3125 0.1474999934 0
1.257500052 1.317499995 0.1474999934 0
1.207499981 1.357499957 0.137500003 0
1.217499971 1.32249999 0.1424999982 0
1.217499971 1.332499981 0.1424999982 0
1.212499976 1.337499976 0.1424999982 0
1.212499976 1.342499971 0.1424999982 0
1.207499981 1.352499962 0.1424999982 0
1.252500057 1.32249999 0.1474999934 0
1.252500057 1.327499986 0.1474999934 0
1.247499943 1.337499976 0.1474999934 0
1.247499943 1.342499971 0.1474999934 0
1.242499948 1.347499967 0.1474999934 0
1.242499948 1.357499957 0.1474999934 0
1.277500033 1.342499971 0.1525000036 0
1.277500033 1.347499967 0.1525000036 0
1.272500038 1.352499962 0.1525000036 0
1.132500052 1.367499948 0.1274999976 0
1.127500057 1.377500057 0.1274999976 0
1.132500052 1.372499943 0.1274999976 0
1.122499943 1.387500048 0.1274999976 0
1.122499943 1.392500043 0.1274999976 0
1.157500029 1.387500048 0.1324999928 0
1.157500029 1.392500043 0.1324999928 0
1.152500033 1.397500038 0.1324999928 0
1.167500019 1.367499948 0.1324999928 0
1.167500019 1.372499943 0.1324999928 0
1.162500024 1.377500057 0.1324999928 0
1.19749999 1.372499943 0.137500003 0
1.19749999 1.377500057 0.137500003 0
1.192499995 1.382500052 0.137500003 0
1.1875 1.397500038 0.137500003 0
1.192499995 1.392500043 0.137500003 0
1.152500033 1.407500029 0.1324999928 0
1.147500038 1.412500024 0.1324999928 0
1.137500048 1.4375 0.1324999928 0
1.142500043 1.422500014 0.1324999928 0
1.142500043 1.42750001 0.1324999928 0
1.17750001 1.417500019 0.137500003 0
1.1875 1.407500029 0.137500003 0
1.182500005 1.412500024 0.137500003 0
1.17750001 1.42750001 0.137500003 0
1.172500014 1.432500005 0.137500003 0
1.202499986 1.362499952 0.137500003 0
1.232499957 1.367499948 0.1424999982 0
1.237499952 1.362499952 0.1474999934 0
1.232499957 1.377500057 0.1424999982 0
1.227499962 1.382500052 0.1424999982 0
1.227499962 1.392500043 0.1424999982 0
1.222499967 1.397500038 0.1424999982 0
1.267500043 1.372499943 0.1474999934 0
1.272500038 1.362499952 0.1525000036 0
1.272500038 1.367499948 0.1525000036 0
1.267500043 1.382500052 0.1474999934 0
1.262500048 1.387500048 0.1474999934 0
1.262500048 1.397500038 0.1474999934 0
1.217499971 1.412500024 0.1424999982 0
1.217499971 1.417500019 0.1424999982 0
1.222499967 1.402500033 0.1424999982 0
1.212499976 1.42750001 0.1424999982 0
1.212499976 1.432500005 0.1424999982 0
1.257500052 1.402500033 0.1474999934 0
1.252500057 1.412500024 0.1474999934 0
1.252500057 1.417500019 0.1474999934 0
1.247499943 1.42750001 0.1474999934 0
1.247499943 1.432500005 0.1474999934 0
0.9775000215 1.452499986 0.02749999985 0
0.9825000167 1.442499995 0.02749999985 0
0.9775000215 1.462499976 0.02749999985 0
0.9725000262 1.477499962 0.02749999985 0
1.007500052 1.44749999 0.02749999985 0
1.002500057 1.457499981 0.02749999985 0
1.032500029 1.452499986 0.02749999985 0
1.002500057 1.467499971 0.02749999985 0
1.027500033 1.462499976 0.02749999985 0
1.027500033 1.477499962 0.02749999985 0
0.9725000262 1.487499952 0.02749999985 0
0.9725000262 1.497499943 0.02749999985 0
0.9975000024 1.482499957 0.02749999985 0
0.9975000024 1.492499948 0.02749999985 0
0.9674999714 1.512500048 0.02749999985 0
0.9925000072 1.507500052 0.02749999985 0
0.9925000072 1.517500043 0.02749999985 0
1.027500033 1.487499952 0.02749999985 0
1.022500038 1.502500057 0.02749999985 0
1.022500038 1.512500048 0.02749999985 0
0.9875000119 1.44749999 0.0625 0
0.9825000167 1.457499981 0.0625 0
0.9775000215 1.467499971 0.0625 0
0.9725000262 1.477499962 0.0625 0
1.017500043 1.44749999 0.0625 0
1.012500048 1.457499981 0.0625 0
1.012500048 1.467499971 0.0625 0
1.007500052 1.477499962 0.0625 0
1.037500024 1.477499962 0.06750000268 0
0.9725000262 1.492499948 0.0625 0
0.9674999714 1.502500057 0.0625 0
0.9624999762 1.512500048 0.0625 0
0.9975000024 1.502500057 0.0625 0
0.9975000024 1.512500048 0.0625 0
1.002500057 1.492499948 0.0625 0
1.037500024 1.487499952 0.06750000268 0
1.032500029 1.502500057 0.06750000268 0
1.027500033 1.512500048 0.06750000268 0
1.057500005 1.442499995 0.02749999985 0
1.057500005 1.457499981 0.02749999985 0
1.057500005 1.467499971 0.02749999985 0
1.087499976 1.452499986 0.02749999985 0
1.117499948 1.442499995 0.03249999881 0
1.112499952 1.457499981 0.03249999881 0
1.082499981 1.462499976 0.02749999985 0
1.082499981 1.477499962 0.02749999985 0
1.112499952 1.467499971 0.03249999881 0
1.05250001 1.482499957 0.02749999985 0
1.05250001 1.492499948 0.02749999985 0
1.047500014 1.507500052 0.02749999985 0
1.077499986 1.502500057 0.02749999985 0
1.077499986 1.512500048 0.02749999985 0
1.082499981 1.487499952 0.02749999985 0
1.112499952 1.482499957 0.03249999881 0
1.107499957 1.497499943 0.03249999881 0
1.107499957 1.507500052 0.03249999881 0
1.047500014 1.44749999 0.06750000268 0
1.047500014 1.457499981 0.06750000268 0
1.077499986 1.457499981 0.06750000268 0
1.042500019 1.467499971 0.06750000268 0
1.077499986 1.467499971 0.06750000268 0
1.07249999 1.477499962 0.06750000268 0
1.082499981 1.44749999 0.06750000268 0
1.117499948 1.442499995 0.07249999791 0
1.112499952 1.457499981 0.07249999791 0
1.107499957 1.467499971 0.07249999791 0
1.107499957 1.477499962 0.07249999791 0
1.067499995 1.487499952 0.06750000268 0
1.067499995 1.502500057 0.06750000268 0
1.0625 1.512500048 0.06750000268 0
1.102499962 1.487499952 0.07249999791 0
1.097499967 1.512500048 0.07249999791 0
1.102499962 1.502500057 0.07249999791 0
0.9624999762 1.522500038 0.02749999985 0
0.9624999762 1.537500024 0.02749999985 0
0.9925000072 1.532500029 0.02749999985 0
0.9875000119 1.542500019 0.02749999985 0
0.9875000119 1.557500005 0.02749999985 0
1.017500043 1.527500033 0.02749999985 0
1.017500043 1.537500024 0.02749999985 0
1.012500048 1.55250001 0.02749999985 0
0.9825000167 1.57249999 0.02749999985 0
0.9775000215 1.597499967 0.02749999985 0
0.9825000167 1.582499981 0.02749999985 0
1.012500048 1.567499995 0.02749999985 0
1.007500052 1.577499986 0.02749999985 0
1.037500024 1.57249999 0.02749999985 0
1.007500052 1.592499971 0.02749999985 0
1.037500024 1.587499976 0.02749999985 0
0.9925000072 1.522500038 0.0625 0
0.9875000119 1.537500024 0.0625 0
0.9825000167 1.547500014 0.0625 0
0.9825000167 1.557500005 0.0625 0
1.027500033 1.522500038 0.06750000268 0
1.022500038 1.537500024 0.06750000268 0
1.017500043 1.547500014 0.06750000268 0
1.012500048 1.557500005 0.06750000268 0
0.9775000215 1.57249999 0.0625 0
0.9725000262 1.582499981 0.0625 0
0.9674999714 1.592499971 0.0625 0
1.012500048 1.57249999 0.06750000268 0
1.007500052 1.582499981 0.06750000268 0
1.002500057 1.597499967 0.06750000268 0
1.037500024 1.597499967 0.06750000268 0
1.047500014 1.522500038 0.02749999985 0
1.047500014 1.532500029 0.02749999985 0
1.07249999 1.527500033 0.02749999985 0
1.042500019 1.547500014 0.02749999985 0
1.042500019 1.557500005 0.02749999985 0
1.07249999 1.542500019 0.02749999985 0
1.07249999 1.55250001 0.02749999985 0
1.107499957 1.522500038 0.03249999881 0
1.102499962 1.532500029 0.03249999881 0
1.102499962 1.547500014 0.03249999881 0
1.067499995 1.567499995 0.02749999985 0
1.067499995 1.582499981 0.02749999985 0
1.0625 1.597499967 0.02749999985 0
1.097499967 1.5625 0.03249999881 0
1.097499967 1.577499986 0.03249999881 0
1.097499967 1.592499971 0.03249999881 0
1.057500005 1.522500038 0.06750000268 0
1.057500005 1.537500024 0.06750000268 0
1.05250001 1.547500014 0.06750000268 0
1.047500014 1.557500005 0.06750000268 0
1.092499971 1.522500038 0.07249999791 0
1.092499971 1.537500024 0.07249999791 0
1.087499976 1.547500014 0.07249999791 0
1.047500014 1.57249999 0.06750000268 0
1.042500019 1.582499981 0.06750000268 0
1.077499986 1.582499981 0.07249999791 0
1.07249999 1.597499967 0.07249999791 0
1.082499981 1.5625 0.07249999791 0
1.082499981 1.57249999 0.07249999791 0
1.117499948 1.57249999 0.07249999791 0
1.112499952 1.587499976 0.07249999791 0
1.112499952 1.597499967 0.07249999791 0
0.9624999762 1.442499995 0.1024999991 0
0.9925000072 1.44749999 0.1075000018 0
0.9875000119 1.452499986 0.1075000018 0
0.9775000215 1.467499971 0.1075000018 0
0.9725000262 1.477499962 0.1075000018 0
0.9825000167 1.462499976 0.1075000018 0
1.027500033 1.44749999 0.112499997 0
1.022500038 1.452499986 0.112499997 0
1.017500043 1.462499976 0.112499997 0
1.012500048 1.467499971 0.112499997 0
1.012500048 1.477499962 0.112499997 0
0.9725000262 1.487499952 0.1075000018 0
0.9674999714 1.492499948 0.1024999991 0
0.9624999762 1.502500057 0.1024999991 0
0.9975000024 1.502500057 0.1075000018 0
0.9925000072 1.507500052 0.1075000018 0
0.9925000072 1.517500043 0.1075000018 0
1.007500052 1.482499957 0.112499997 0
1.002500057 1.492499948 0.112499997 0
1.037500024 1.492499948 0.1174999997 0
1.037500024 1.497499943 0.1174999997 0
1.032500029 1.507500052 0.112499997 0
1.027500033 1.517500043 0.112499997 0
1.057500005 1.452499986 0.1174999997 0
1.0625 1.44749999 0.1174999997 0
1.05250001 1.462499976 0.1174999997 0
1.05250001 1.467499971 0.1174999997 0
1.047500014 1.477499962 0.1174999997 0
1.042500019 1.482499957 0.1174999997 0
1.097499967 1.442499995 0.1225000024 0
1.092499971 1.452499986 0.1225000024 0
1.092499971 1.457499981 0.1225000024 0
1.087499976 1.467499971 0.1225000024 0
1.082499981 1.472499967 0.1225000024 0
1.077499986 1.482499957 0.1225000024 0
1.077499986 1.492499948 0.1225000024 0
1.07249999 1.497499943 0.1225000024 0
1.067499995 1.507500052 0.1225000024 0
1.0625 1.517500043 0.1225000024 0
1.117499948 1.482499957 0.1274999976 0
1.112499952 1.487499952 0.1274999976 0
1.112499952 1.497499943 0.1274999976 0
1.107499957 1.507500052 0.1274999976 0
1.102499962 1.512500048 0.1274999976 0
0.9875000119 1.522500038 0.1075000018 0
0.9825000167 1.532500029 0.1075000018 0
0.9775000215 1.542500019 0.1075000018 0
0.9674999714 1.557500005 0.1075000018 0
0.9725000262 1.55250001 0.1075000018 0
1.017500043 1.532500029 0.112499997 0
1.022500038 1.522500038 0.112499997 0
1.017500043 1.542500019 0.112499997 0
1.012500048 1.547500014 0.112499997 0
1.007500052 1.557500005 0.112499997 0
0.9624999762 1.567499995 0.1075000018 0
0.9975000024 1.577499986 0.112499997 0
0.9875000119 1.592499971 0.1075000018 0
0.9925000072 1.587499976 0.112499997 0
1.002500057 1.567499995 0.112499997 0
1.037500024 1.577499986 0.1174999997 0
1.032500029 1.582499981 0.1174999997 0
1.027500033 1.592499971 0.1174999997 0
1.057500005 1.532500029 0.1174999997 0
1.0625 1.522500038 0.1174999997 0
1.047500014 1.547500014 0.1174999997 0
1.05250001 1.542500019 0.1174999997 0
1.047500014 1.557500005 0.1174999997 0
1.042500019 1.567499995 0.1174999997 0
1.097499967 1.522500038 0.1274999976 0
1.092499971 1.537500024 0.1225000024 0
1.097499967 1.532500029 0.1274999976 0
1.087499976 1.547500014 0.1225000024 0
1.082499981 1.557500005 0.1225000024 0
1.077499986 1.577499986 0.1225000024 0
1.07249999 1.582499981 0.1225000024 0
1.067499995 1.592499971 0.1225000024 0
1.082499981 1.567499995 0.1225000024 0
1.117499948 1.567499995 0.1274999976 0
1.117499948 1.57249999 0.1274999976 0
1.112499952 1.582499981 0.1274999976 0
1.107499957 1.592499971 0.1274999976 0
1.147500038 1.442499995 0.01250000019 0
1.147500038 1.452499986 0.01250000019 0
1.142500043 1.457499981 0.01250000019 0
1.137500048 1.467499971 0.01250000019 0
1.137500048 1.477499962 0.01250000019 0
1.142500043 1.44749999 0.03249999881 0
1.142500043 1.462499976 0.03249999881 0
1.142500043 1.477499962 0.03249999881 0
1.182500005 1.442499995 0.01250000019 0
1.182500005 1.452499986 0.01250000019 0
1.17750001 1.462499976 0.01250000019 0
1.172500014 1.472499967 0.01250000019 0
1.17750001 1.442499995 0.03249999881 0
1.172500014 1.457499981 0.03249999881 0
1.172500014 1.467499971 0.03249999881 0
1.132500052 1.487499952 0.01250000019 0
1.132500052 1.497499943 0.01250000019 0
1.127500057 1.507500052 0.01250000019 0
1.122499943 1.517500043 0.01250000019 0
1.137500048 1.487499952 0.03249999881 0
1.137500048 1.502500057 0.03249999881 0
1.137500048 1.517500043 0.03249999881 0
1.172500014 1.482499957 0.01250000019 0
1.167500019 1.492499948 0.01250000019 0
1.167500019 1.502500057 0.01250000019 0
1.162500024 1.512500048 0.01250000019 0
1.19749999 1.517500043 0.01250000019 0
1.172500014 1.482499957 0.03249999881 0
1.167500019 1.497499943 0.03249999881 0
1.167500019 1.507500052 0.03249999881 0
1.19749999 1.517500043 0.03249999881 0
1.152500033 1.442499995 0.07249999791 0
1.147500038 1.457499981 0.07249999791 0
1.142500043 1.467499971 0.07249999791 0
1.142500043 1.477499962 0.07249999791 0
1.1875 1.442499995 0.07249999791 0
1.182500005 1.452499986 0.07249999791 0
1.17750001 1.477499962 0.07249999791 0
1.182500005 1.467499971 0.07249999791 0
