# .PCD v0.7 - Point Cloud Data file format
VERSION 0.7
FIELDS x y z
SIZE 4 4 4
TYPE F F F
COUNT 1 1 1
WIDTH 1171
HEIGHT 1
VIEWPOINT 0 0 0 1 0 0 0
POINTS 1171
DATA ascii
0.06750000268 -0.002499999944 0.01750000007
0.05249999836 -0.03750000149 0.02250000089
0.05750000104 -0.03249999881 0.02250000089
0.05249999836 -0.03750000149 0.02749999985
0.05750000104 -0.03249999881 0.02749999985
0.05750000104 -0.02749999985 0.02250000089
0.05750000104 -0.02749999985 0.02749999985
0.0474999994 -0.03750000149 0.03750000149
0.05249999836 -0.03750000149 0.03249999881
0.05249999836 -0.03249999881 0.03249999881
0.05249999836 -0.03750000149 0.03750000149
0.05249999836 -0.03249999881 0.03750000149
0.05750000104 -0.02749999985 0.03249999881
0.05750000104 -0.02250000089 0.03249999881
0.05750000104 -0.02749999985 0.03750000149
0.05750000104 -0.02250000089 0.03750000149
0.0625 -0.02749999985 0.02250000089
0.0625 -0.02250000089 0.02250000089
0.0625 -0.02250000089 0.02749999985
0.05750000104 -0.01750000007 0.03249999881
0.05750000104 -0.01750000007 0.03750000149
0.0625 -0.01750000007 0.02250000089
0.0625 -0.01250000019 0.02250000089
0.0625 -0.01750000007 0.02749999985
0.0625 -0.01250000019 0.02749999985
0.0625 -0.007499999832 0.02250000089
0.06750000268 -0.007499999832 0.02250000089
0.0625 -0.002499999944 0.02250000089
0.06750000268 -0.002499999944 0.02250000089
0.0625 -0.007499999832 0.02749999985
0.0625 -0.002499999944 0.02749999985
0.0625 -0.01750000007 0.03249999881
0.0625 -0.01250000019 0.03249999881
0.0625 -0.01750000007 0.03750000149
0.0625 -0.01250000019 0.03750000149
0.0625 -0.007499999832 0.03249999881
0.0625 -0.002499999944 0.03249999881
0.0625 -0.007499999832 0.03750000149
0.0625 -0.002499999944 0.03750000149
0.01750000007 -0.07249999791 0.0474999994
0.02749999985 -0.0625 0.04250000045
0.02250000089 -0.06750000268 0.0474999994
0.02749999985 -0.0625 0.05750000104
0.03750000149 -0.05249999836 0.0474999994
0.03750000149 -0.0474999994 0.04250000045
0.03750000149 -0.0474999994 0.0474999994
0.02749999985 -0.05750000104 0.05249999836
0.03249999881 -0.05750000104 0.05249999836
0.03249999881 -0.05249999836 0.05750000104
0.03750000149 -0.0474999994 0.05249999836
0.01750000007 -0.0625 0.07249999791
0.01750000007 -0.0625 0.0775000006
0.02250000089 -0.06750000268 0.0625
0.02250000089 -0.0625 0.07249999791
0.02749999985 -0.05750000104 0.06750000268
0.03249999881 -0.05249999836 0.0625
0.03249999881 -0.05249999836 0.06750000268
0.03750000149 -0.0474999994 0.0625
0.03750000149 -0.04250000045 0.06750000268
0.02250000089 -0.05750000104 0.0775000006
0.03249999881 -0.05249999836 0.07249999791
0.03750000149 -0.0474999994 0.07249999791
0.03750000149 -0.04250000045 0.07249999791
0.04250000045 -0.04250000045 0.04250000045
0.04250000045 -0.04250000045 0.0474999994
0.0474999994 -0.04250000045 0.0474999994
0.04250000045 -0.04250000045 0.05249999836
0.04250000045 -0.04250000045 0.05750000104
0.04250000045 -0.04250000045 0.0625
0.0474999994 -0.03750000149 0.04250000045
0.0474999994 -0.03750000149 0.0474999994
0.05249999836 -0.03249999881 0.04250000045
0.05249999836 -0.03249999881 0.0474999994
0.05249999836 -0.02749999985 0.04250000045
0.05750000104 -0.02749999985 0.04250000045
0.05750000104 -0.02250000089 0.04250000045
0.05249999836 -0.02749999985 0.0474999994
0.05750000104 -0.02250000089 0.0474999994
0.0474999994 -0.03750000149 0.05249999836
0.0474999994 -0.03249999881 0.05249999836
0.0474999994 -0.03750000149 0.05750000104
0.0474999994 -0.03249999881 0.05750000104
0.05249999836 -0.03249999881 0.05249999836
0.05249999836 -0.02749999985 0.05249999836
0.05750000104 -0.02250000089 0.05249999836
0.05249999836 -0.02749999985 0.05750000104
0.05249999836 -0.02250000089 0.05750000104
0.05750000104 -0.02250000089 0.05750000104
0.05750000104 -0.01750000007 0.04250000045
0.05750000104 -0.01250000019 0.04250000045
0.05750000104 -0.01750000007 0.0474999994
0.05750000104 -0.01250000019 0.0474999994
0.05750000104 -0.007499999832 0.0474999994
0.05750000104 -0.01750000007 0.05249999836
0.05750000104 -0.01250000019 0.05249999836
0.05750000104 -0.01750000007 0.05750000104
0.05750000104 -0.01250000019 0.05750000104
0.05750000104 -0.007499999832 0.05249999836
0.05750000104 -0.002499999944 0.05249999836
0.05750000104 -0.007499999832 0.05750000104
0.05750000104 -0.002499999944 0.05750000104
0.0625 -0.01250000019 0.04250000045
0.0625 -0.007499999832 0.04250000045
0.0625 -0.002499999944 0.04250000045
0.0625 -0.007499999832 0.0474999994
0.0625 -0.002499999944 0.0474999994
0.0625 -0.002499999944 0.05249999836
0.04250000045 -0.03750000149 0.0625
0.0474999994 -0.03750000149 0.0625
0.0474999994 -0.03249999881 0.0625
0.04250000045 -0.03750000149 0.06750000268
0.0474999994 -0.03249999881 0.06750000268
0.05249999836 -0.02749999985 0.0625
0.05249999836 -0.02250000089 0.0625
0.05249999836 -0.02749999985 0.06750000268
0.05249999836 -0.02250000089 0.06750000268
0.04250000045 -0.03750000149 0.07249999791
0.0474999994 -0.03249999881 0.07249999791
0.04250000045 -0.03750000149 0.0775000006
0.0474999994 -0.03249999881 0.0775000006
0.0474999994 -0.02749999985 0.0775000006
0.05249999836 -0.02749999985 0.07249999791
0.05249999836 -0.02250000089 0.07249999791
0.05249999836 -0.02749999985 0.0775000006
0.05249999836 -0.02250000089 0.0775000006
0.05750000104 -0.01750000007 0.0625
0.05750000104 -0.01250000019 0.0625
0.05249999836 -0.01750000007 0.06750000268
0.05750000104 -0.01750000007 0.06750000268
0.05750000104 -0.01250000019 0.06750000268
0.05750000104 -0.007499999832 0.0625
0.05750000104 -0.002499999944 0.0625
0.05750000104 -0.007499999832 0.06750000268
0.05750000104 -0.002499999944 0.06750000268
0.05249999836 -0.01750000007 0.07249999791
0.05750000104 -0.01750000007 0.07249999791
0.05750000104 -0.01250000019 0.07249999791
0.05249999836 -0.01750000007 0.0775000006
0.05750000104 -0.01250000019 0.0775000006
0.05750000104 -0.007499999832 0.07249999791
0.05750000104 -0.002499999944 0.07249999791
0.05750000104 -0.007499999832 0.0775000006
0.05750000104 -0.002499999944 0.0775000006
0.02749999985 -0.05750000104 0.08250000328
0.03249999881 -0.0474999994 0.08250000328
0.03750000149 -0.04250000045 0.08250000328
0.04250000045 -0.04250000045 0.112499997
0.04250000045 -0.03750000149 0.08250000328
0.0474999994 -0.03249999881 0.08250000328
0.04250000045 -0.03750000149 0.08749999851
0.04250000045 -0.03249999881 0.08749999851
0.0474999994 -0.03249999881 0.08749999851
0.0474999994 -0.02749999985 0.08250000328
0.0474999994 -0.02749999985 0.08749999851
0.05249999836 -0.02749999985 0.08250000328
0.05249999836 -0.02250000089 0.08250000328
0.05249999836 -0.02749999985 0.08749999851
0.05249999836 -0.02250000089 0.08749999851
0.04250000045 -0.03750000149 0.09250000119
0.0474999994 -0.03249999881 0.09250000119
0.04250000045 -0.03750000149 0.09749999642
0.0474999994 -0.02749999985 0.09250000119
0.05750000104 -0.02250000089 0.09250000119
0.05249999836 -0.02250000089 0.09749999642
0.05750000104 -0.02250000089 0.09749999642
0.05249999836 -0.01750000007 0.08250000328
0.05750000104 -0.01250000019 0.08250000328
0.05249999836 -0.01750000007 0.08749999851
0.05750000104 -0.01750000007 0.08749999851
0.05750000104 -0.01250000019 0.08749999851
0.05750000104 -0.007499999832 0.08250000328
0.05750000104 -0.002499999944 0.08250000328
0.05750000104 -0.007499999832 0.08749999851
0.05750000104 -0.002499999944 0.08749999851
0.05750000104 -0.01750000007 0.09250000119
0.05750000104 -0.01250000019 0.09250000119
0.05750000104 -0.01750000007 0.09749999642
0.05750000104 -0.01250000019 0.09749999642
0.05750000104 -0.007499999832 0.09250000119
0.05750000104 -0.002499999944 0.09250000119
0.05750000104 -0.007499999832 0.09749999642
0.0625 -0.007499999832 0.09250000119
0.0625 -0.002499999944 0.09250000119
0.0625 -0.007499999832 0.09749999642
0.0625 -0.002499999944 0.09749999642
0.05249999836 -0.02749999985 0.1024999991
0.05249999836 -0.02250000089 0.1024999991
0.05750000104 -0.02250000089 0.1024999991
0.05249999836 -0.02749999985 0.1075000018
0.05249999836 -0.02250000089 0.1075000018
0.05750000104 -0.02250000089 0.1075000018
0.04250000045 -0.03750000149 0.112499997
0.0474999994 -0.03750000149 0.112499997
0.0474999994 -0.03249999881 0.112499997
0.04250000045 -0.03750000149 0.1174999997
0.0474999994 -0.03750000149 0.1174999997
0.0474999994 -0.03249999881 0.1174999997
0.05249999836 -0.03249999881 0.112499997
0.05249999836 -0.03249999881 0.1174999997
0.05249999836 -0.02749999985 0.112499997
0.05249999836 -0.02250000089 0.112499997
0.05750000104 -0.02250000089 0.112499997
0.05249999836 -0.02749999985 0.1174999997
0.05249999836 -0.02250000089 0.1174999997
0.05750000104 -0.02250000089 0.1174999997
0.05750000104 -0.01750000007 0.1024999991
0.05750000104 -0.01250000019 0.1024999991
0.05750000104 -0.01750000007 0.1075000018
0.05750000104 -0.01250000019 0.1075000018
0.05750000104 -0.007499999832 0.1024999991
0.05750000104 -0.002499999944 0.1024999991
0.05750000104 -0.002499999944 0.1075000018
0.05750000104 -0.01750000007 0.112499997
0.05750000104 -0.01250000019 0.112499997
0.05750000104 -0.01750000007 0.1174999997
0.05750000104 -0.01250000019 0.1174999997
0.05750000104 -0.007499999832 0.112499997
0.05750000104 -0.002499999944 0.112499997
0.05750000104 -0.007499999832 0.1174999997
0.0625 -0.007499999832 0.1024999991
0.0625 -0.002499999944 0.1024999991
0.0625 -0.007499999832 0.1075000018
0.0625 -0.002499999944 0.1075000018
0.0625 -0.007499999832 0.112499997
0.0625 -0.002499999944 0.112499997
0.0625 -0.007499999832 0.1174999997
0.0625 -0.002499999944 0.1174999997
0.03750000149 -0.0474999994 0.1225000024
0.03750000149 -0.0474999994 0.1274999976
0.04250000045 -0.04250000045 0.1225000024
0.04250000045 -0.04250000045 0.1274999976
0.04250000045 -0.04250000045 0.137500003
0.03750000149 -0.03249999881 0.1424999982
0.0474999994 -0.03750000149 0.1225000024
0.0474999994 -0.03249999881 0.1225000024
0.0474999994 -0.03750000149 0.1274999976
0.0474999994 -0.03249999881 0.1274999976
0.05249999836 -0.03249999881 0.1225000024
0.05249999836 -0.03249999881 0.1274999976
0.05249999836 -0.02749999985 0.1225000024
0.05249999836 -0.02250000089 0.1225000024
0.05750000104 -0.02250000089 0.1225000024
0.05249999836 -0.02749999985 0.1274999976
0.05249999836 -0.02250000089 0.1274999976
0.05750000104 -0.02250000089 0.1274999976
0.04250000045 -0.03750000149 0.1324999928
0.0474999994 -0.03750000149 0.1324999928
0.0474999994 -0.03249999881 0.1324999928
0.0474999994 -0.03750000149 0.137500003
0.04250000045 -0.03249999881 0.137500003
0.0474999994 -0.03249999881 0.137500003
0.05249999836 -0.03249999881 0.1324999928
0.0474999994 -0.02749999985 0.137500003
0.05249999836 -0.02749999985 0.1324999928
0.05249999836 -0.02250000089 0.1324999928
0.05750000104 -0.02250000089 0.1324999928
0.05249999836 -0.02749999985 0.137500003
0.05249999836 -0.02250000089 0.137500003
0.05750000104 -0.02250000089 0.137500003
0.05750000104 -0.01750000007 0.1225000024
0.05750000104 -0.01250000019 0.1225000024
0.05750000104 -0.01750000007 0.1274999976
0.05750000104 -0.01250000019 0.1274999976
0.05750000104 -0.007499999832 0.1225000024
0.05750000104 -0.002499999944 0.1225000024
0.05750000104 -0.007499999832 0.1274999976
0.05750000104 -0.002499999944 0.1274999976
0.05750000104 -0.01750000007 0.1324999928
0.05750000104 -0.01250000019 0.1324999928
0.05249999836 -0.01750000007 0.137500003
0.05750000104 -0.01750000007 0.137500003
0.05750000104 -0.01250000019 0.137500003
0.05750000104 -0.007499999832 0.1324999928
0.05750000104 -0.002499999944 0.1324999928
0.05750000104 -0.007499999832 0.137500003
0.0625 -0.007499999832 0.1225000024
0.0625 -0.002499999944 0.1225000024
0.0625 -0.007499999832 0.1274999976
0.0625 -0.002499999944 0.1274999976
0.04250000045 -0.03750000149 0.1424999982
0.04250000045 -0.03249999881 0.1424999982
0.0474999994 -0.02749999985 0.1424999982
0.3774999976 -0.2224999964 0.01250000019
0.3774999976 -0.2224999964 0.01750000007
0.3774999976 -0.2175000012 0.01250000019
0.3774999976 -0.212500006 0.01250000019
0.3774999976 -0.2074999958 0.01250000019
0.3774999976 -0.2025000006 0.01250000019
0.3774999976 -0.2025000006 0.01750000007
0.3774999976 -0.2224999964 0.02749999985
0.3774999976 -0.2224999964 0.03750000149
0.3774999976 -0.2175000012 0.02250000089
0.3774999976 -0.212500006 0.02250000089
0.3774999976 -0.2175000012 0.02749999985
0.3774999976 -0.2074999958 0.02250000089
0.3774999976 -0.2025000006 0.02250000089
0.3774999976 -0.2074999958 0.02749999985
0.3774999976 -0.2025000006 0.02749999985
0.3774999976 -0.2175000012 0.03249999881
0.3774999976 -0.212500006 0.03249999881
0.3774999976 -0.2175000012 0.03750000149
0.3774999976 -0.212500006 0.03750000149
0.3774999976 -0.2074999958 0.03750000149
0.3774999976 -0.2025000006 0.03750000149
0.3774999976 -0.1975000054 0.01250000019
0.3774999976 -0.1924999952 0.01250000019
0.3774999976 -0.1924999952 0.01750000007
0.3774999976 -0.1875 0.01250000019
0.3774999976 -0.1875 0.01750000007
0.3774999976 -0.1825000048 0.01750000007
0.3774999976 -0.1774999946 0.007499999832
0.3774999976 -0.1774999946 0.01250000019
0.3774999976 -0.1724999994 0.01250000019
0.3774999976 -0.1774999946 0.01750000007
0.3774999976 -0.1724999994 0.01750000007
0.3824999928 -0.1774999946 0.007499999832
0.3874999881 -0.1774999946 0.007499999832
0.3824999928 -0.1774999946 0.01250000019
0.3874999881 -0.1774999946 0.01250000019
0.3824999928 -0.1724999994 0.01250000019
0.3874999881 -0.1724999994 0.01250000019
0.3824999928 -0.1774999946 0.01750000007
0.3874999881 -0.1774999946 0.01750000007
0.3824999928 -0.1724999994 0.01750000007
0.3874999881 -0.1724999994 0.01750000007
0.3950000107 -0.174999997 0.01499999966
0.3774999976 -0.1924999952 0.02250000089
0.3774999976 -0.1975000054 0.02749999985
0.3774999976 -0.1924999952 0.02749999985
0.3774999976 -0.1875 0.02749999985
0.3774999976 -0.1825000048 0.02749999985
0.3774999976 -0.1825000048 0.03249999881
0.3774999976 -0.1825000048 0.03750000149
0.3774999976 -0.1774999946 0.02250000089
0.3774999976 -0.1724999994 0.02250000089
0.3774999976 -0.1774999946 0.02749999985
0.3774999976 -0.1724999994 0.02749999985
0.3774999976 -0.1774999946 0.03249999881
0.3774999976 -0.1724999994 0.03249999881
0.3774999976 -0.1774999946 0.03750000149
0.3774999976 -0.1724999994 0.03750000149
0.3849999905 -0.174999997 0.02500000037
0.3950000107 -0.174999997 0.02500000037
0.3849999905 -0.174999997 0.03500000015
0.3950000107 -0.174999997 0.03500000015
0.3774999976 -0.2224999964 0.0474999994
0.3774999976 -0.2224999964 0.05249999836
0.3824999928 -0.2224999964 0.0474999994
0.3874999881 -0.2224999964 0.0474999994
0.3925000131 -0.2224999964 0.0474999994
0.3975000083 -0.2224999964 0.0474999994
0.3824999928 -0.2224999964 0.05249999836
0.3874999881 -0.2224999964 0.05249999836
0.3925000131 -0.2224999964 0.05249999836
0.3975000083 -0.2224999964 0.05249999836
0.3774999976 -0.212500006 0.04250000045
0.3774999976 -0.2175000012 0.0474999994
0.3774999976 -0.212500006 0.0474999994
0.3774999976 -0.2074999958 0.04250000045
0.3774999976 -0.2025000006 0.04250000045
0.3774999976 -0.2074999958 0.0474999994
0.3774999976 -0.2025000006 0.0474999994
0.3774999976 -0.2175000012 0.05249999836
0.3725000024 -0.212500006 0.05249999836
0.3774999976 -0.212500006 0.05249999836
0.3774999976 -0.2074999958 0.05249999836
0.3774999976 -0.2025000006 0.05249999836
0.3824999928 -0.2175000012 0.0474999994
0.3874999881 -0.2175000012 0.0474999994
0.3824999928 -0.212500006 0.0474999994
0.3874999881 -0.212500006 0.0474999994
0.3925000131 -0.2175000012 0.0474999994
0.3975000083 -0.2175000012 0.0474999994
0.3925000131 -0.212500006 0.0474999994
0.3975000083 -0.212500006 0.0474999994
0.3824999928 -0.2074999958 0.0474999994
0.3874999881 -0.2074999958 0.0474999994
0.3824999928 -0.2025000006 0.0474999994
0.3874999881 -0.2025000006 0.0474999994
0.3925000131 -0.2074999958 0.0474999994
0.3975000083 -0.2074999958 0.0474999994
0.3925000131 -0.2025000006 0.0474999994
0.3975000083 -0.2025000006 0.0474999994
0.3824999928 -0.2175000012 0.05249999836
0.3874999881 -0.2175000012 0.05249999836
0.3824999928 -0.212500006 0.05249999836
0.3874999881 -0.212500006 0.05249999836
0.3925000131 -0.2175000012 0.05249999836
0.3975000083 -0.2175000012 0.05249999836
0.3925000131 -0.212500006 0.05249999836
0.3975000083 -0.212500006 0.05249999836
0.3824999928 -0.2074999958 0.05249999836
0.3874999881 -0.2074999958 0.05249999836
0.3824999928 -0.2025000006 0.05249999836
0.3874999881 -0.2025000006 0.05249999836
0.3925000131 -0.2074999958 0.05249999836
0.3975000083 -0.2074999958 0.05249999836
0.3925000131 -0.2025000006 0.05249999836
0.3975000083 -0.2025000006 0.05249999836
0.3774999976 -0.1975000054 0.04250000045
0.3774999976 -0.1924999952 0.04250000045
0.3774999976 -0.1975000054 0.0474999994
0.3774999976 -0.1924999952 0.0474999994
0.3774999976 -0.1875 0.04250000045
0.3774999976 -0.1875 0.0474999994
0.3774999976 -0.1825000048 0.0474999994
0.3774999976 -0.1975000054 0.05249999836
0.3774999976 -0.1924999952 0.05249999836
0.3774999976 -0.1875 0.05249999836
0.3774999976 -0.1825000048 0.05249999836
0.3824999928 -0.1975000054 0.0474999994
0.3874999881 -0.1975000054 0.0474999994
0.3824999928 -0.1924999952 0.0474999994
0.3874999881 -0.1924999952 0.0474999994
0.3925000131 -0.1975000054 0.0474999994
0.3975000083 -0.1975000054 0.0474999994
0.3925000131 -0.1924999952 0.0474999994
0.3975000083 -0.1924999952 0.0474999994
0.3824999928 -0.1875 0.0474999994
0.3874999881 -0.1875 0.0474999994
0.3824999928 -0.1825000048 0.0474999994
0.3874999881 -0.1825000048 0.0474999994
0.3925000131 -0.1875 0.0474999994
0.3975000083 -0.1875 0.0474999994
0.3925000131 -0.1825000048 0.0474999994
0.3975000083 -0.1825000048 0.0474999994
0.3824999928 -0.1975000054 0.05249999836
0.3874999881 -0.1975000054 0.05249999836
0.3824999928 -0.1924999952 0.05249999836
0.3874999881 -0.1924999952 0.05249999836
0.3925000131 -0.1975000054 0.05249999836
0.3975000083 -0.1975000054 0.05249999836
0.3925000131 -0.1924999952 0.05249999836
0.3975000083 -0.1924999952 0.05249999836
0.3824999928 -0.1875 0.05249999836
0.3874999881 -0.1875 0.05249999836
0.3824999928 -0.1825000048 0.05249999836
0.3874999881 -0.1825000048 0.05249999836
0.3925000131 -0.1875 0.05249999836
0.3975000083 -0.1875 0.05249999836
0.3925000131 -0.1825000048 0.05249999836
0.3975000083 -0.1825000048 0.05249999836
0.3774999976 -0.1774999946 0.04250000045
0.3774999976 -0.1724999994 0.04250000045
0.3774999976 -0.1774999946 0.0474999994
0.3774999976 -0.1724999994 0.0474999994
0.3774999976 -0.1774999946 0.05249999836
0.3849999905 -0.174999997 0.04500000179
0.3950000107 -0.174999997 0.04500000179
0.3824999928 -0.1774999946 0.05249999836
0.3874999881 -0.1774999946 0.05249999836
0.3925000131 -0.1774999946 0.05249999836
0.3975000083 -0.1774999946 0.05249999836
0.4225000143 -0.2224999964 0.01750000007
0.4225000143 -0.2175000012 0.01250000019
0.4225000143 -0.212500006 0.01750000007
0.4225000143 -0.2074999958 0.01250000019
0.4225000143 -0.2025000006 0.01250000019
0.4225000143 -0.2074999958 0.01750000007
0.4225000143 -0.2224999964 0.02250000089
0.4225000143 -0.2224999964 0.02749999985
0.4225000143 -0.212500006 0.02250000089
0.4225000143 -0.2175000012 0.02749999985
0.4225000143 -0.2025000006 0.02250000089
0.4225000143 -0.2025000006 0.02749999985
0.4225000143 -0.2175000012 0.03249999881
0.4225000143 -0.2175000012 0.03750000149
0.4225000143 -0.2025000006 0.03249999881
0.4225000143 -0.1924999952 0.01250000019
0.4225000143 -0.1975000054 0.01750000007
0.4225000143 -0.1875 0.01250000019
0.4225000143 -0.1875 0.01750000007
0.4225000143 -0.1825000048 0.01750000007
0.4050000012 -0.174999997 0.01499999966
0.4149999917 -0.174999997 0.01499999966
0.4225000143 -0.1774999946 0.01250000019
0.4225000143 -0.1724999994 0.01250000019
0.4225000143 -0.1774999946 0.01750000007
0.4225000143 -0.1724999994 0.01750000007
0.4225000143 -0.1975000054 0.02250000089
0.4225000143 -0.1924999952 0.02749999985
0.4225000143 -0.1875 0.02250000089
0.4225000143 -0.1825000048 0.02250000089
0.4225000143 -0.1875 0.02749999985
0.4225000143 -0.1975000054 0.03750000149
0.4225000143 -0.1825000048 0.03249999881
0.4225000143 -0.1825000048 0.03750000149
0.4050000012 -0.174999997 0.02500000037
0.4149999917 -0.174999997 0.02500000037
0.4050000012 -0.174999997 0.03500000015
0.4149999917 -0.174999997 0.03500000015
0.4225000143 -0.1774999946 0.02250000089
0.4225000143 -0.1724999994 0.02250000089
0.4225000143 -0.1774999946 0.02749999985
0.4225000143 -0.1724999994 0.02749999985
0.4225000143 -0.1774999946 0.03249999881
0.4225000143 -0.1724999994 0.03249999881
0.4225000143 -0.1774999946 0.03750000149
0.4225000143 -0.1724999994 0.03750000149
0.4025000036 -0.2224999964 0.0474999994
0.4074999988 -0.2224999964 0.0474999994
0.412499994 -0.2224999964 0.0474999994
0.4174999893 -0.2224999964 0.0474999994
0.412499994 -0.2224999964 0.05249999836
0.4174999893 -0.2224999964 0.05249999836
0.4225000143 -0.2224999964 0.0474999994
0.4225000143 -0.2224999964 0.05249999836
0.4025000036 -0.2175000012 0.0474999994
0.4074999988 -0.2175000012 0.0474999994
0.4025000036 -0.212500006 0.0474999994
0.4074999988 -0.212500006 0.0474999994
0.412499994 -0.2175000012 0.0474999994
0.4174999893 -0.2175000012 0.0474999994
0.412499994 -0.212500006 0.0474999994
0.4174999893 -0.212500006 0.0474999994
0.4025000036 -0.2074999958 0.0474999994
0.4074999988 -0.2074999958 0.0474999994
0.4025000036 -0.2025000006 0.0474999994
0.4074999988 -0.2025000006 0.0474999994
0.412499994 -0.2074999958 0.0474999994
0.4174999893 -0.2074999958 0.0474999994
0.412499994 -0.2025000006 0.0474999994
0.4174999893 -0.2025000006 0.0474999994
0.4025000036 -0.212500006 0.05249999836
0.4074999988 -0.212500006 0.05249999836
0.412499994 -0.2175000012 0.05249999836
0.4174999893 -0.2175000012 0.05249999836
0.412499994 -0.212500006 0.05249999836
0.4174999893 -0.212500006 0.05249999836
0.4025000036 -0.2074999958 0.05249999836
0.4074999988 -0.2074999958 0.05249999836
0.4025000036 -0.2025000006 0.05249999836
0.4074999988 -0.2025000006 0.05249999836
0.412499994 -0.2074999958 0.05249999836
0.4174999893 -0.2074999958 0.05249999836
0.412499994 -0.2025000006 0.05249999836
0.4174999893 -0.2025000006 0.05249999836
0.4225000143 -0.2175000012 0.04250000045
0.4225000143 -0.2175000012 0.0474999994
0.4225000143 -0.212500006 0.0474999994
0.4225000143 -0.2074999958 0.0474999994
0.4225000143 -0.2025000006 0.0474999994
0.4225000143 -0.2175000012 0.05249999836
0.4225000143 -0.212500006 0.05249999836
0.4225000143 -0.2074999958 0.05249999836
0.4225000143 -0.2025000006 0.05249999836
0.4025000036 -0.1975000054 0.0474999994
0.4074999988 -0.1975000054 0.0474999994
0.4025000036 -0.1924999952 0.0474999994
0.4074999988 -0.1924999952 0.0474999994
0.412499994 -0.1975000054 0.0474999994
0.4174999893 -0.1975000054 0.0474999994
0.412499994 -0.1924999952 0.0474999994
0.4174999893 -0.1924999952 0.0474999994
0.4025000036 -0.1875 0.0474999994
0.4074999988 -0.1875 0.0474999994
0.4025000036 -0.1825000048 0.0474999994
0.4074999988 -0.1825000048 0.0474999994
0.412499994 -0.1875 0.0474999994
0.4174999893 -0.1875 0.0474999994
0.412499994 -0.1825000048 0.0474999994
0.4174999893 -0.1825000048 0.0474999994
0.4025000036 -0.1975000054 0.05249999836
0.4074999988 -0.1975000054 0.05249999836
0.4025000036 -0.1924999952 0.05249999836
0.4074999988 -0.1924999952 0.05249999836
0.412499994 -0.1975000054 0.05249999836
0.4174999893 -0.1975000054 0.05249999836
0.412499994 -0.1924999952 0.05249999836
0.4174999893 -0.1924999952 0.05249999836
0.4025000036 -0.1875 0.05249999836
0.4074999988 -0.1875 0.05249999836
0.4025000036 -0.1825000048 0.05249999836
0.4074999988 -0.1825000048 0.05249999836
0.412499994 -0.1875 0.05249999836
0.4174999893 -0.1875 0.05249999836
0.412499994 -0.1825000048 0.05249999836
0.4174999893 -0.1825000048 0.05249999836
0.4225000143 -0.1975000054 0.04250000045
0.4225000143 -0.1975000054 0.0474999994
0.4225000143 -0.1924999952 0.0474999994
0.4225000143 -0.1825000048 0.04250000045
0.4225000143 -0.1875 0.0474999994
0.4225000143 -0.1825000048 0.0474999994
0.4225000143 -0.1975000054 0.05249999836
0.4225000143 -0.1924999952 0.05249999836
0.4225000143 -0.1875 0.05249999836
0.4225000143 -0.1825000048 0.05249999836
0.4025000036 -0.1774999946 0.04250000045
0.4074999988 -0.1774999946 0.04250000045
0.4025000036 -0.1724999994 0.04250000045
0.4074999988 -0.1724999994 0.04250000045
0.4025000036 -0.1774999946 0.0474999994
0.4074999988 -0.1774999946 0.0474999994
0.4025000036 -0.1724999994 0.0474999994
0.4074999988 -0.1724999994 0.0474999994
0.4149999917 -0.174999997 0.04500000179
0.4025000036 -0.1774999946 0.05249999836
0.4074999988 -0.1774999946 0.05249999836
0.412499994 -0.1774999946 0.05249999836
0.4174999893 -0.1774999946 0.05249999836
0.4225000143 -0.1774999946 0.04250000045
0.4225000143 -0.1724999994 0.04250000045
0.4225000143 -0.1774999946 0.0474999994
0.4225000143 -0.1724999994 0.0474999994
0.4225000143 -0.1774999946 0.05249999836
0.4225000143 -0.1724999994 0.05249999836
0.5774999857 -0.02250000089 0.01250000019
0.5774999857 -0.02250000089 0.01750000007
0.5824999809 -0.02250000089 0.01250000019
0.5824999809 -0.02250000089 0.01750000007
0.5975000262 -0.02749999985 0.01250000019
0.5975000262 -0.02749999985 0.01750000007
0.5724999905 -0.01750000007 0.01250000019
0.5774999857 -0.01750000007 0.01250000019
0.5724999905 -0.01250000019 0.01250000019
0.5724999905 -0.01750000007 0.01750000007
0.5774999857 -0.01750000007 0.01750000007
0.5724999905 -0.01250000019 0.01750000007
0.5724999905 -0.007499999832 0.01250000019
0.5724999905 -0.002499999944 0.01250000019
0.5724999905 -0.007499999832 0.01750000007
0.5724999905 -0.002499999944 0.01750000007
0.5774999857 -0.02250000089 0.02250000089
0.5774999857 -0.02250000089 0.02749999985
0.5774999857 -0.02250000089 0.03249999881
0.5774999857 -0.02250000089 0.03750000149
0.5824999809 -0.02250000089 0.02250000089
0.5824999809 -0.02250000089 0.02749999985
0.5975000262 -0.02749999985 0.02250000089
0.5975000262 -0.02749999985 0.02749999985
0.5824999809 -0.02250000089 0.03249999881
0.5824999809 -0.02250000089 0.03750000149
0.5975000262 -0.02749999985 0.03249999881
0.5975000262 -0.02749999985 0.03750000149
0.5724999905 -0.01750000007 0.02250000089
0.5774999857 -0.01750000007 0.02250000089
0.5724999905 -0.01250000019 0.02250000089
0.5724999905 -0.01750000007 0.02749999985
0.5774999857 -0.01750000007 0.02749999985
0.5724999905 -0.01250000019 0.02749999985
0.5724999905 -0.007499999832 0.02250000089
0.5724999905 -0.002499999944 0.02250000089
0.5724999905 -0.007499999832 0.02749999985
0.5724999905 -0.002499999944 0.02749999985
0.5724999905 -0.01750000007 0.03249999881
0.5774999857 -0.01750000007 0.03249999881
0.5724999905 -0.01250000019 0.03249999881
0.5724999905 -0.01750000007 0.03750000149
0.5774999857 -0.01750000007 0.03750000149
0.5724999905 -0.01250000019 0.03750000149
0.5724999905 -0.007499999832 0.03249999881
0.5724999905 -0.002499999944 0.03249999881
0.5724999905 -0.007499999832 0.03750000149
0.5724999905 -0.002499999944 0.03750000149
0.6025000215 -0.02749999985 0.01250000019
0.6075000167 -0.02749999985 0.01250000019
0.6025000215 -0.02749999985 0.01750000007
0.6075000167 -0.02749999985 0.01750000007
0.6125000119 -0.02749999985 0.01250000019
0.6025000215 -0.02749999985 0.02250000089
0.6075000167 -0.02749999985 0.02250000089
0.6025000215 -0.02749999985 0.02749999985
0.6075000167 -0.02749999985 0.02749999985
0.6125000119 -0.02749999985 0.02250000089
0.6025000215 -0.02749999985 0.03249999881
0.6075000167 -0.02749999985 0.03249999881
0.6025000215 -0.02749999985 0.03750000149
0.6075000167 -0.02749999985 0.03750000149
0.6125000119 -0.02749999985 0.03249999881
0.5774999857 -0.02250000089 0.04250000045
0.5774999857 -0.02250000089 0.0474999994
0.5774999857 -0.02250000089 0.05249999836
0.5774999857 -0.02250000089 0.05750000104
0.5824999809 -0.02250000089 0.04250000045
0.5874999762 -0.02749999985 0.0474999994
0.5824999809 -0.02250000089 0.0474999994
0.5975000262 -0.02749999985 0.04250000045
0.5975000262 -0.02749999985 0.0474999994
0.5874999762 -0.02749999985 0.05249999836
0.5824999809 -0.02250000089 0.05249999836
0.5824999809 -0.02250000089 0.05750000104
0.5975000262 -0.02749999985 0.05750000104
0.5724999905 -0.01750000007 0.04250000045
0.5774999857 -0.01750000007 0.04250000045
0.5724999905 -0.01250000019 0.04250000045
0.5724999905 -0.01750000007 0.0474999994
0.5774999857 -0.01750000007 0.0474999994
0.5724999905 -0.01250000019 0.0474999994
0.5724999905 -0.007499999832 0.04250000045
0.5724999905 -0.002499999944 0.04250000045
0.5724999905 -0.007499999832 0.0474999994
0.5724999905 -0.002499999944 0.0474999994
0.5724999905 -0.01750000007 0.05249999836
0.5774999857 -0.01750000007 0.05249999836
0.5724999905 -0.01250000019 0.05249999836
0.5724999905 -0.01750000007 0.05750000104
0.5774999857 -0.01750000007 0.05750000104
0.5724999905 -0.01250000019 0.05750000104
0.5724999905 -0.007499999832 0.05249999836
0.5724999905 -0.002499999944 0.05249999836
0.5724999905 -0.007499999832 0.05750000104
0.5724999905 -0.002499999944 0.05750000104
0.5774999857 -0.02250000089 0.0625
0.5774999857 -0.02250000089 0.06750000268
0.5774999857 -0.02250000089 0.07249999791
0.5774999857 -0.02250000089 0.0775000006
0.5824999809 -0.02250000089 0.0625
0.5824999809 -0.02250000089 0.06750000268
0.5975000262 -0.02749999985 0.06750000268
0.5824999809 -0.02250000089 0.07249999791
0.5824999809 -0.02749999985 0.0775000006
0.5874999762 -0.02749999985 0.0775000006
0.5824999809 -0.02250000089 0.0775000006
0.5975000262 -0.02749999985 0.07249999791
0.5975000262 -0.02749999985 0.0775000006
0.5724999905 -0.01750000007 0.0625
0.5774999857 -0.01750000007 0.0625
0.5724999905 -0.01250000019 0.0625
0.5724999905 -0.01750000007 0.06750000268
0.5774999857 -0.01750000007 0.06750000268
0.5724999905 -0.01250000019 0.06750000268
0.5724999905 -0.007499999832 0.0625
0.5724999905 -0.002499999944 0.0625
0.5724999905 -0.007499999832 0.06750000268
0.5724999905 -0.002499999944 0.06750000268
0.5724999905 -0.01750000007 0.07249999791
0.5774999857 -0.01750000007 0.07249999791
0.5724999905 -0.01250000019 0.07249999791
0.5724999905 -0.01750000007 0.0775000006
0.5774999857 -0.01750000007 0.0775000006
0.5724999905 -0.01250000019 0.0775000006
0.5724999905 -0.007499999832 0.07249999791
0.5724999905 -0.002499999944 0.07249999791
0.5724999905 -0.007499999832 0.0775000006
0.5724999905 -0.002499999944 0.0775000006
0.6025000215 -0.02749999985 0.04250000045
0.6075000167 -0.02749999985 0.04250000045
0.6025000215 -0.02749999985 0.0474999994
0.6075000167 -0.02749999985 0.0474999994
0.6125000119 -0.02749999985 0.04250000045
0.6025000215 -0.02749999985 0.05249999836
0.6075000167 -0.02749999985 0.05249999836
0.6025000215 -0.02749999985 0.05750000104
0.6075000167 -0.02749999985 0.05750000104
0.6125000119 -0.02749999985 0.05249999836
0.6125000119 -0.02749999985 0.05750000104
0.6025000215 -0.02749999985 0.0625
0.6075000167 -0.02749999985 0.0625
0.6025000215 -0.02749999985 0.06750000268
0.6075000167 -0.02749999985 0.06750000268
0.6025000215 -0.02749999985 0.07249999791
0.6075000167 -0.02749999985 0.07249999791
0.6025000215 -0.02749999985 0.0775000006
0.6075000167 -0.02749999985 0.0775000006
0.5774999857 -0.02250000089 0.08250000328
0.5774999857 -0.02250000089 0.08749999851
0.5774999857 -0.02250000089 0.09250000119
0.5774999857 -0.02250000089 0.09749999642
0.5874999762 -0.02749999985 0.08250000328
0.5824999809 -0.02250000089 0.08250000328
0.5824999809 -0.02250000089 0.08749999851
0.5975000262 -0.02749999985 0.08749999851
0.5874999762 -0.02749999985 0.09250000119
0.5824999809 -0.02250000089 0.09250000119
0.5824999809 -0.02749999985 0.09749999642
0.5874999762 -0.02749999985 0.09749999642
0.5824999809 -0.02250000089 0.09749999642
0.5874999762 -0.02250000089 0.09749999642
0.5975000262 -0.02749999985 0.09250000119
0.5924999714 -0.02749999985 0.09749999642
0.5975000262 -0.02749999985 0.09749999642
0.5924999714 -0.02250000089 0.09749999642
0.5975000262 -0.02250000089 0.09749999642
0.5724999905 -0.01750000007 0.08250000328
0.5774999857 -0.01750000007 0.08250000328
0.5724999905 -0.01250000019 0.08250000328
0.5724999905 -0.01750000007 0.08749999851
0.5774999857 -0.01750000007 0.08749999851
0.5724999905 -0.01250000019 0.08749999851
0.5724999905 -0.007499999832 0.08250000328
0.5724999905 -0.002499999944 0.08250000328
0.5724999905 -0.007499999832 0.08749999851
0.5724999905 -0.002499999944 0.08749999851
0.5724999905 -0.01750000007 0.09250000119
0.5774999857 -0.01750000007 0.09250000119
0.5724999905 -0.01250000019 0.09250000119
0.5724999905 -0.01750000007 0.09749999642
0.5774999857 -0.01750000007 0.09749999642
0.5724999905 -0.01250000019 0.09749999642
0.5774999857 -0.01250000019 0.09749999642
0.5724999905 -0.007499999832 0.09250000119
0.5724999905 -0.002499999944 0.09250000119
0.5724999905 -0.007499999832 0.09749999642
0.5774999857 -0.007499999832 0.09749999642
0.5724999905 -0.002499999944 0.09749999642
0.5774999857 -0.002499999944 0.09749999642
0.5824999809 -0.01750000007 0.09749999642
0.5874999762 -0.01750000007 0.09749999642
0.5824999809 -0.01250000019 0.09749999642
0.5874999762 -0.01250000019 0.09749999642
0.5924999714 -0.01750000007 0.09749999642
0.5975000262 -0.01750000007 0.09749999642
0.5924999714 -0.01250000019 0.09749999642
0.5975000262 -0.01250000019 0.09749999642
0.5824999809 -0.007499999832 0.09749999642
0.5874999762 -0.007499999832 0.09749999642
0.5824999809 -0.002499999944 0.09749999642
0.5874999762 -0.002499999944 0.09749999642
0.5924999714 -0.007499999832 0.09749999642
0.5975000262 -0.007499999832 0.09749999642
0.5924999714 -0.002499999944 0.09749999642
0.5975000262 -0.002499999944 0.09749999642
0.5774999857 -0.02250000089 0.1024999991
0.5874999762 -0.02749999985 0.1024999991
0.5824999809 -0.02250000089 0.1024999991
0.5874999762 -0.02250000089 0.1024999991
0.5924999714 -0.02749999985 0.1024999991
0.5975000262 -0.02749999985 0.1024999991
0.5924999714 -0.02250000089 0.1024999991
0.5975000262 -0.02250000089 0.1024999991
0.5724999905 -0.01750000007 0.1024999991
0.5774999857 -0.01750000007 0.1024999991
0.5724999905 -0.01250000019 0.1024999991
0.5774999857 -0.01250000019 0.1024999991
0.5724999905 -0.007499999832 0.1024999991
0.5774999857 -0.007499999832 0.1024999991
0.5724999905 -0.002499999944 0.1024999991
0.5774999857 -0.002499999944 0.1024999991
0.5824999809 -0.01750000007 0.1024999991
0.5874999762 -0.01750000007 0.1024999991
0.5824999809 -0.01250000019 0.1024999991
0.5874999762 -0.01250000019 0.1024999991
0.5924999714 -0.01750000007 0.1024999991
0.5975000262 -0.01750000007 0.1024999991
0.5924999714 -0.01250000019 0.1024999991
0.5975000262 -0.01250000019 0.1024999991
0.5824999809 -0.007499999832 0.1024999991
0.5874999762 -0.007499999832 0.1024999991
0.5824999809 -0.002499999944 0.1024999991
0.5874999762 -0.002499999944 0.1024999991
0.5924999714 -0.007499999832 0.1024999991
0.5975000262 -0.007499999832 0.1024999991
0.5924999714 -0.002499999944 0.1024999991
0.5975000262 -0.002499999944 0.1024999991
0.6025000215 -0.02749999985 0.08250000328
0.6075000167 -0.02749999985 0.08250000328
0.6025000215 -0.02749999985 0.08749999851
0.6075000167 -0.02749999985 0.08749999851
0.6025000215 -0.02749999985 0.09250000119
0.6075000167 -0.02749999985 0.09250000119
0.6025000215 -0.02749999985 0.09749999642
0.6075000167 -0.02749999985 0.09749999642
0.6025000215 -0.02250000089 0.09749999642
0.6075000167 -0.02250000089 0.09749999642
0.6125000119 -0.02250000089 0.09749999642
0.6175000072 -0.02250000089 0.09749999642
0.6225000024 -0.02250000089 0.09749999642
0.6025000215 -0.01750000007 0.09749999642
0.6075000167 -0.01750000007 0.09749999642
0.6025000215 -0.01250000019 0.09749999642
0.6075000167 -0.01250000019 0.09749999642
0.6125000119 -0.01750000007 0.09749999642
0.6175000072 -0.01750000007 0.09749999642
0.6125000119 -0.01250000019 0.09749999642
0.6175000072 -0.01250000019 0.09749999642
0.6025000215 -0.007499999832 0.09749999642
0.6075000167 -0.007499999832 0.09749999642
0.6025000215 -0.002499999944 0.09749999642
0.6075000167 -0.002499999944 0.09749999642
0.6125000119 -0.007499999832 0.09749999642
0.6175000072 -0.007499999832 0.09749999642
0.6125000119 -0.002499999944 0.09749999642
0.6175000072 -0.002499999944 0.09749999642
0.6225000024 -0.01750000007 0.09749999642
0.6225000024 -0.01250000019 0.09749999642
0.6274999976 -0.01250000019 0.09749999642
0.6225000024 -0.007499999832 0.09749999642
0.6274999976 -0.007499999832 0.09749999642
0.6225000024 -0.002499999944 0.09749999642
0.6274999976 -0.002499999944 0.09749999642
0.6025000215 -0.02749999985 0.1024999991
0.6075000167 -0.02749999985 0.1024999991
0.6025000215 -0.02250000089 0.1024999991
0.6075000167 -0.02250000089 0.1024999991
0.6125000119 -0.02749999985 0.1024999991
0.6125000119 -0.02250000089 0.1024999991
0.6175000072 -0.02250000089 0.1024999991
0.6025000215 -0.01750000007 0.1024999991
0.6075000167 -0.01750000007 0.1024999991
0.6025000215 -0.01250000019 0.1024999991
0.6075000167 -0.01250000019 0.1024999991
0.6125000119 -0.01750000007 0.1024999991
0.6175000072 -0.01750000007 0.1024999991
0.6125000119 -0.01250000019 0.1024999991
0.6175000072 -0.01250000019 0.1024999991
0.6025000215 -0.007499999832 0.1024999991
0.6075000167 -0.007499999832 0.1024999991
0.6025000215 -0.002499999944 0.1024999991
0.6075000167 -0.002499999944 0.1024999991
0.6125000119 -0.007499999832 0.1024999991
0.6175000072 -0.007499999832 0.1024999991
0.6125000119 -0.002499999944 0.1024999991
0.6175000072 -0.002499999944 0.1024999991
0.6225000024 -0.01750000007 0.1024999991
0.6274999976 -0.01750000007 0.1024999991
0.6225000024 -0.01250000019 0.1024999991
0.6274999976 -0.01250000019 0.1024999991
0.6225000024 -0.007499999832 0.1024999991
0.6274999976 -0.007499999832 0.1024999991
0.6225000024 -0.002499999944 0.1024999991
0.6274999976 -0.002499999944 0.1024999991
-0.1174999997 0.0474999994 0.01250000019
-0.1174999997 0.0474999994 0.01750000007
-0.112499997 0.05249999836 0.01250000019
-0.1075000018 0.05249999836 0.01250000019
-0.1024999991 0.05249999836 0.01250000019
-0.1075000018 0.05249999836 0.01750000007
-0.1024999991 0.05249999836 0.01750000007
-0.09749999642 0.05249999836 0.01250000019
-0.09250000119 0.05249999836 0.01250000019
-0.09749999642 0.05249999836 0.01750000007
-0.09250000119 0.05249999836 0.01750000007
-0.08749999851 0.05249999836 0.01250000019
-0.08250000328 0.05249999836 0.01250000019
-0.08250000328 0.05750000104 0.01250000019
-0.08749999851 0.05249999836 0.01750000007
-0.08250000328 0.05249999836 0.01750000007
-0.08250000328 0.05750000104 0.01750000007
-0.09749999642 0.05249999836 0.02250000089
-0.09250000119 0.05249999836 0.02250000089
-0.08749999851 0.05249999836 0.02250000089
-0.08250000328 0.05249999836 0.02250000089
-0.08250000328 0.05750000104 0.02250000089
-0.08749999851 0.05249999836 0.02749999985
-0.08250000328 0.05249999836 0.02749999985
-0.08250000328 0.05750000104 0.02749999985
-0.0775000006 0.05750000104 0.01250000019
-0.07249999791 0.05750000104 0.01250000019
-0.0775000006 0.05750000104 0.01750000007
-0.07249999791 0.05750000104 0.01750000007
-0.06750000268 0.05750000104 0.01250000019
-0.0625 0.05750000104 0.01250000019
-0.06750000268 0.05750000104 0.01750000007
-0.0625 0.05750000104 0.01750000007
-0.05750000104 0.05750000104 0.01250000019
-0.05249999836 0.05750000104 0.01250000019
-0.05750000104 0.05750000104 0.01750000007
-0.05249999836 0.05750000104 0.01750000007
-0.05249999836 0.0625 0.01250000019
-0.05249999836 0.0625 0.01750000007
-0.0474999994 0.0625 0.01250000019
-0.04250000045 0.0625 0.01250000019
-0.0474999994 0.0625 0.01750000007
-0.04250000045 0.0625 0.01750000007
-0.0775000006 0.05750000104 0.02250000089
-0.07249999791 0.05750000104 0.02250000089
-0.0775000006 0.05750000104 0.02749999985
-0.07249999791 0.05750000104 0.02749999985
-0.06750000268 0.05750000104 0.02250000089
-0.0625 0.05750000104 0.02250000089
-0.06750000268 0.05750000104 0.02749999985
-0.0625 0.05750000104 0.02749999985
-0.0775000006 0.05750000104 0.03249999881
-0.07249999791 0.05750000104 0.03249999881
-0.07249999791 0.05750000104 0.03750000149
-0.06750000268 0.05249999836 0.03249999881
-0.0625 0.05249999836 0.03249999881
-0.06750000268 0.05750000104 0.03249999881
-0.0625 0.05750000104 0.03249999881
-0.0625 0.05249999836 0.03750000149
-0.06750000268 0.05750000104 0.03750000149
-0.05750000104 0.05750000104 0.02250000089
-0.05249999836 0.05750000104 0.02250000089
-0.05750000104 0.05750000104 0.02749999985
-0.05249999836 0.05750000104 0.02749999985
-0.05249999836 0.05750000104 0.03750000149
-0.05249999836 0.0625 0.02250000089
-0.0474999994 0.0625 0.02250000089
-0.04250000045 0.0625 0.02250000089
-0.04250000045 0.0625 0.03750000149
-0.03750000149 0.0625 0.01250000019
-0.03249999881 0.0625 0.01250000019
-0.03750000149 0.0625 0.01750000007
-0.03249999881 0.0625 0.01750000007
-0.02749999985 0.0625 0.01250000019
-0.02250000089 0.0625 0.01250000019
-0.02749999985 0.06750000268 0.01250000019
-0.02250000089 0.06750000268 0.01250000019
-0.02749999985 0.0625 0.01750000007
-0.02250000089 0.0625 0.01750000007
-0.01750000007 0.06750000268 0.01250000019
-0.01250000019 0.06750000268 0.01250000019
-0.01750000007 0.06750000268 0.01750000007
-0.01250000019 0.06750000268 0.01750000007
-0.007499999832 0.06750000268 0.01250000019
-0.002499999944 0.06750000268 0.01250000019
-0.007499999832 0.06750000268 0.01750000007
-0.002499999944 0.06750000268 0.01750000007
-0.03750000149 0.0625 0.02250000089
-0.03249999881 0.0625 0.02250000089
-0.03750000149 0.0625 0.02749999985
-0.03249999881 0.0625 0.02749999985
-0.02749999985 0.0625 0.02250000089
-0.02250000089 0.0625 0.02250000089
-0.02250000089 0.06750000268 0.02250000089
-0.02749999985 0.0625 0.02749999985
-0.02250000089 0.0625 0.02749999985
-0.02749999985 0.06750000268 0.02749999985
-0.02250000089 0.06750000268 0.02749999985
-0.02250000089 0.06750000268 0.03249999881
-0.02749999985 0.07249999791 0.03249999881
-0.02250000089 0.07249999791 0.03249999881
-0.02749999985 0.0775000006 0.03249999881
-0.02250000089 0.0775000006 0.03249999881
-0.02749999985 0.07249999791 0.03750000149
-0.02250000089 0.07249999791 0.03750000149
-0.02749999985 0.0775000006 0.03750000149
-0.02250000089 0.0775000006 0.03750000149
-0.01750000007 0.06750000268 0.02250000089
-0.01250000019 0.06750000268 0.02250000089
-0.01750000007 0.06750000268 0.02749999985
-0.01250000019 0.06750000268 0.02749999985
-0.007499999832 0.06750000268 0.02250000089
-0.002499999944 0.06750000268 0.02250000089
-0.007499999832 0.06750000268 0.02749999985
-0.002499999944 0.06750000268 0.02749999985
-0.01750000007 0.06750000268 0.03249999881
-0.01250000019 0.06750000268 0.03249999881
-0.01750000007 0.06750000268 0.03750000149
-0.01250000019 0.06750000268 0.03750000149
-0.007499999832 0.06750000268 0.03249999881
-0.002499999944 0.06750000268 0.03249999881
-0.007499999832 0.06750000268 0.03750000149
-0.002499999944 0.06750000268 0.03750000149
-0.01750000007 0.07249999791 0.03249999881
-0.01750000007 0.0775000006 0.03249999881
-0.01750000007 0.07249999791 0.03750000149
-0.01750000007 0.0775000006 0.03750000149
-0.05750000104 0.05750000104 0.04250000045
-0.05249999836 0.05750000104 0.04250000045
-0.0474999994 0.0625 0.04250000045
-0.04250000045 0.0625 0.04250000045
-0.0474999994 0.0625 0.0474999994
-0.04250000045 0.0625 0.0474999994
-0.03750000149 0.0625 0.04250000045
-0.03249999881 0.0625 0.04250000045
-0.03750000149 0.0625 0.0474999994
-0.03249999881 0.0625 0.0474999994
-0.02749999985 0.06750000268 0.04250000045
-0.02250000089 0.06750000268 0.04250000045
-0.02749999985 0.0625 0.0474999994
-0.02250000089 0.0625 0.0474999994
-0.02250000089 0.06750000268 0.0474999994
-0.02749999985 0.07249999791 0.04250000045
-0.02250000089 0.07249999791 0.04250000045
-0.02749999985 0.0775000006 0.04250000045
-0.02250000089 0.0775000006 0.04250000045
-0.03249999881 0.0625 0.05249999836
-0.02749999985 0.0625 0.05249999836
-0.02250000089 0.0625 0.05249999836
-0.02250000089 0.06750000268 0.05249999836
-0.02250000089 0.0625 0.05750000104
-0.02250000089 0.06750000268 0.05750000104
-0.01750000007 0.06750000268 0.04250000045
-0.01250000019 0.06750000268 0.04250000045
-0.01750000007 0.06750000268 0.0474999994
-0.01250000019 0.06750000268 0.0474999994
-0.007499999832 0.06750000268 0.04250000045
-0.002499999944 0.06750000268 0.04250000045
-0.007499999832 0.06750000268 0.0474999994
-0.002499999944 0.06750000268 0.0474999994
-0.01750000007 0.07249999791 0.04250000045
-0.01750000007 0.06750000268 0.05249999836
-0.01250000019 0.06750000268 0.05249999836
-0.01750000007 0.06750000268 0.05750000104
-0.01250000019 0.06750000268 0.05750000104
-0.007499999832 0.06750000268 0.05249999836
-0.002499999944 0.06750000268 0.05249999836
-0.007499999832 0.06750000268 0.05750000104
-0.002499999944 0.06750000268 0.05750000104
-0.01250000019 0.06750000268 0.0625
-0.007499999832 0.06750000268 0.0625
-0.002499999944 0.06750000268 0.0625
-0.002499999944 0.06750000268 0.06750000268
0.06750000268 0.002499999944 0.01250000019
0.06750000268 0.007499999832 0.01250000019
0.06750000268 0.002499999944 0.01750000007
0.06750000268 0.007499999832 0.01750000007
0.06750000268 0.01250000019 0.01250000019
0.0625 0.01750000007 0.01250000019
0.06750000268 0.01750000007 0.01250000019
0.0625 0.01250000019 0.01750000007
0.06750000268 0.01250000019 0.01750000007
0.0625 0.01750000007 0.01750000007
0.05750000104 0.02749999985 0.01750000007
0.05750000104 0.03249999881 0.01250000019
0.05249999836 0.03750000149 0.01250000019
0.05750000104 0.03750000149 0.01250000019
0.05750000104 0.03249999881 0.01750000007
0.05249999836 0.03750000149 0.01750000007
0.05750000104 0.03750000149 0.01750000007
0.0625 0.02250000089 0.01250000019
0.0625 0.02749999985 0.01250000019
0.0625 0.02250000089 0.01750000007
0.0625 0.02749999985 0.01750000007
0.0625 0.03249999881 0.01250000019
0.05750000104 0.01750000007 0.03249999881
0.05750000104 0.01750000007 0.03750000149
0.0625 0.002499999944 0.02250000089
0.06750000268 0.002499999944 0.02250000089
0.0625 0.007499999832 0.02250000089
0.06750000268 0.007499999832 0.02250000089
0.0625 0.002499999944 0.02749999985
0.0625 0.007499999832 0.02749999985
0.0625 0.01250000019 0.02250000089
0.0625 0.01750000007 0.02250000089
0.0625 0.01250000019 0.02749999985
0.0625 0.01750000007 0.02749999985
0.0625 0.002499999944 0.03249999881
0.0625 0.007499999832 0.03249999881
0.0625 0.002499999944 0.03750000149
0.0625 0.007499999832 0.03750000149
0.0625 0.01250000019 0.03249999881
0.0625 0.01750000007 0.03249999881
0.0625 0.01250000019 0.03750000149
0.0625 0.01750000007 0.03750000149
0.05750000104 0.02749999985 0.02250000089
0.05750000104 0.02250000089 0.02749999985
0.05750000104 0.02749999985 0.02749999985
0.05249999836 0.03249999881 0.02250000089
0.05750000104 0.03249999881 0.02250000089
0.05249999836 0.03750000149 0.02250000089
0.05750000104 0.03750000149 0.02250000089
0.05249999836 0.03249999881 0.02749999985
0.05750000104 0.03249999881 0.02749999985
0.05249999836 0.03750000149 0.02749999985
0.05750000104 0.02250000089 0.03249999881
0.05750000104 0.02749999985 0.03249999881
0.05750000104 0.02250000089 0.03750000149
0.05249999836 0.02749999985 0.03750000149
0.05750000104 0.02749999985 0.03750000149
0.0474999994 0.03750000149 0.03249999881
0.0474999994 0.03750000149 0.03750000149
0.05249999836 0.03249999881 0.03249999881
0.05750000104 0.03249999881 0.03249999881
0.05249999836 0.03249999881 0.03750000149
0.05750000104 0.03249999881 0.03750000149
0.05249999836 0.03750000149 0.03750000149
0.0625 0.02250000089 0.02250000089
0.0625 0.02749999985 0.02250000089
0.0625 0.02250000089 0.02749999985
0.03750000149 0.05750000104 0.01250000019
0.03750000149 0.05249999836 0.01750000007
0.03249999881 0.05750000104 0.01750000007
0.03750000149 0.05750000104 0.01750000007
0.002499999944 0.06750000268 0.01250000019
0.002499999944 0.06750000268 0.01750000007
0.002499999944 0.07249999791 0.01250000019
0.01250000019 0.07249999791 0.01250000019
0.01750000007 0.07249999791 0.01250000019
0.01750000007 0.0775000006 0.01250000019
0.01250000019 0.07249999791 0.01750000007
0.01750000007 0.07249999791 0.01750000007
0.02749999985 0.0625 0.01250000019
0.02250000089 0.06750000268 0.01250000019
0.02749999985 0.06750000268 0.01250000019
0.02749999985 0.0625 0.01750000007
0.02250000089 0.06750000268 0.01750000007
0.02749999985 0.06750000268 0.01750000007
0.03249999881 0.0625 0.01250000019
