# .PCD v0.7 - Point Cloud Data file format
VERSION 0.7
FIELDS x y z
SIZE 4 4 4
TYPE F F F
COUNT 1 1 1
WIDTH 1155
HEIGHT 1
VIEWPOINT 0 0 0 1 0 0 0
POINTS 1155
DATA ascii
0.0474999994 -0.04250000045 0.05249999836
0.04250000045 -0.0474999994 0.05750000104
0.04250000045 -0.04250000045 0.05750000104
0.04250000045 -0.04250000045 0.0625
0.04250000045 -0.04250000045 0.06750000268
0.04250000045 -0.04250000045 0.07249999791
0.0474999994 -0.03750000149 0.04250000045
0.0474999994 -0.03750000149 0.0474999994
0.0474999994 -0.03249999881 0.0474999994
0.05249999836 -0.03750000149 0.04250000045
0.05249999836 -0.03249999881 0.04250000045
0.05249999836 -0.03249999881 0.0474999994
0.05249999836 -0.02749999985 0.04250000045
0.05750000104 -0.02749999985 0.04250000045
0.05750000104 -0.02250000089 0.04250000045
0.05249999836 -0.02749999985 0.0474999994
0.05750000104 -0.02749999985 0.0474999994
0.05750000104 -0.02250000089 0.0474999994
0.04250000045 -0.03750000149 0.05249999836
0.0474999994 -0.03750000149 0.05249999836
0.0474999994 -0.03249999881 0.05249999836
0.04250000045 -0.03750000149 0.05750000104
0.0474999994 -0.03750000149 0.05750000104
0.0474999994 -0.03249999881 0.05750000104
0.05249999836 -0.03249999881 0.05249999836
0.05249999836 -0.03249999881 0.05750000104
0.05249999836 -0.02749999985 0.05249999836
0.05249999836 -0.02250000089 0.05249999836
0.05750000104 -0.02250000089 0.05249999836
0.05249999836 -0.02749999985 0.05750000104
0.05249999836 -0.02250000089 0.05750000104
0.05750000104 -0.02250000089 0.05750000104
0.05750000104 -0.01750000007 0.04250000045
0.05750000104 -0.01250000019 0.04250000045
0.05750000104 -0.01750000007 0.0474999994
0.05750000104 -0.01250000019 0.0474999994
0.05750000104 -0.007499999832 0.0474999994
0.05750000104 -0.01750000007 0.05249999836
0.05750000104 -0.01250000019 0.05249999836
0.05750000104 -0.01750000007 0.05750000104
0.05750000104 -0.01250000019 0.05750000104
0.05750000104 -0.007499999832 0.05249999836
0.05750000104 -0.002499999944 0.05249999836
0.05750000104 -0.007499999832 0.05750000104
0.05750000104 -0.002499999944 0.05750000104
0.0625 -0.01250000019 0.04250000045
0.0625 -0.01250000019 0.0474999994
0.0625 -0.007499999832 0.04250000045
0.0625 -0.002499999944 0.04250000045
0.0625 -0.007499999832 0.0474999994
0.0625 -0.002499999944 0.0474999994
0.0625 -0.002499999944 0.05249999836
0.04250000045 -0.03750000149 0.0625
0.0474999994 -0.03750000149 0.0625
0.0474999994 -0.03249999881 0.0625
0.04250000045 -0.03750000149 0.06750000268
0.0474999994 -0.03750000149 0.06750000268
0.0474999994 -0.03249999881 0.06750000268
0.0474999994 -0.02749999985 0.06750000268
0.05249999836 -0.02749999985 0.0625
0.05249999836 -0.02250000089 0.0625
0.05750000104 -0.02250000089 0.0625
0.05249999836 -0.02749999985 0.06750000268
0.05249999836 -0.02250000089 0.06750000268
0.04250000045 -0.03750000149 0.07249999791
0.0474999994 -0.03249999881 0.07249999791
0.04250000045 -0.03750000149 0.0775000006
0.0474999994 -0.03750000149 0.0775000006
0.0474999994 -0.03249999881 0.0775000006
0.0474999994 -0.02749999985 0.07249999791
0.0474999994 -0.02749999985 0.0775000006
0.05249999836 -0.02749999985 0.07249999791
0.05249999836 -0.02250000089 0.07249999791
0.05249999836 -0.02749999985 0.0775000006
0.05249999836 -0.02250000089 0.0775000006
0.05750000104 -0.01750000007 0.0625
0.05750000104 -0.01250000019 0.0625
0.05249999836 -0.01750000007 0.06750000268
0.05750000104 -0.01750000007 0.06750000268
0.05750000104 -0.01250000019 0.06750000268
0.05750000104 -0.007499999832 0.0625
0.05750000104 -0.002499999944 0.0625
0.05750000104 -0.007499999832 0.06750000268
0.05750000104 -0.002499999944 0.06750000268
0.05249999836 -0.01750000007 0.07249999791
0.05750000104 -0.01750000007 0.07249999791
0.05750000104 -0.01250000019 0.07249999791
0.05249999836 -0.01750000007 0.0775000006
0.05750000104 -0.01750000007 0.0775000006
0.05750000104 -0.01250000019 0.0775000006
0.05750000104 -0.007499999832 0.07249999791
0.05750000104 -0.002499999944 0.07249999791
0.05750000104 -0.007499999832 0.0775000006
0.05750000104 -0.002499999944 0.0775000006
0.007499999832 -0.07249999791 0.08250000328
0.01250000019 -0.07249999791 0.08250000328
0.007499999832 -0.06750000268 0.08250000328
0.002499999944 -0.06750000268 0.08749999851
0.007499999832 -0.06750000268 0.08749999851
0.002499999944 -0.0625 0.08749999851
0.007499999832 -0.0625 0.08749999851
0.01250000019 -0.06750000268 0.08250000328
0.01750000007 -0.06750000268 0.08250000328
0.01750000007 -0.0625 0.08250000328
0.01250000019 -0.06750000268 0.08749999851
0.01250000019 -0.0625 0.08749999851
0.01750000007 -0.0625 0.08749999851
0.002499999944 -0.0625 0.09250000119
0.007499999832 -0.0625 0.09250000119
0.01250000019 -0.0625 0.09250000119
0.02250000089 -0.0625 0.08250000328
0.01750000007 -0.05750000104 0.08749999851
0.007499999832 -0.05750000104 0.09250000119
0.007499999832 -0.05750000104 0.09749999642
0.01250000019 -0.05750000104 0.09250000119
0.01750000007 -0.05750000104 0.09250000119
0.01250000019 -0.05750000104 0.09749999642
0.01750000007 -0.05750000104 0.09749999642
0.01750000007 -0.05249999836 0.09749999642
0.02250000089 -0.05750000104 0.08250000328
0.02749999985 -0.05750000104 0.08250000328
0.02749999985 -0.05249999836 0.08250000328
0.02250000089 -0.05750000104 0.08749999851
0.02749999985 -0.05750000104 0.08749999851
0.02250000089 -0.05249999836 0.08749999851
0.02749999985 -0.05249999836 0.08749999851
0.03249999881 -0.05249999836 0.08250000328
0.02749999985 -0.0474999994 0.08749999851
0.03249999881 -0.0474999994 0.08250000328
0.03750000149 -0.04250000045 0.08250000328
0.03249999881 -0.0474999994 0.08749999851
0.03750000149 -0.0474999994 0.08749999851
0.03750000149 -0.04250000045 0.08749999851
0.02250000089 -0.05750000104 0.09250000119
0.02250000089 -0.05249999836 0.09250000119
0.02749999985 -0.05249999836 0.09250000119
0.02250000089 -0.05249999836 0.09749999642
0.02749999985 -0.05249999836 0.09749999642
0.02749999985 -0.0474999994 0.09749999642
0.03249999881 -0.0474999994 0.09250000119
0.03249999881 -0.04250000045 0.09250000119
0.03750000149 -0.04250000045 0.09250000119
0.03249999881 -0.0474999994 0.09749999642
0.03249999881 -0.04250000045 0.09749999642
0.03750000149 -0.04250000045 0.09749999642
0.01250000019 -0.05249999836 0.1024999991
0.01750000007 -0.05750000104 0.1075000018
0.002499999944 -0.05750000104 0.1174999997
0.007499999832 -0.05750000104 0.1174999997
0.01750000007 -0.05750000104 0.112499997
0.01250000019 -0.05750000104 0.1174999997
0.01750000007 -0.05750000104 0.1174999997
0.02250000089 -0.05249999836 0.1024999991
0.02250000089 -0.05249999836 0.1075000018
0.02749999985 -0.05249999836 0.1075000018
0.03249999881 -0.05249999836 0.1075000018
0.02749999985 -0.0474999994 0.1024999991
0.03249999881 -0.0474999994 0.1024999991
0.03249999881 -0.04250000045 0.1024999991
0.03750000149 -0.04250000045 0.1024999991
0.03249999881 -0.0474999994 0.1075000018
0.03750000149 -0.0474999994 0.1075000018
0.03750000149 -0.04250000045 0.1075000018
0.02250000089 -0.05249999836 0.112499997
0.02749999985 -0.05249999836 0.112499997
0.02250000089 -0.05249999836 0.1174999997
0.02749999985 -0.05249999836 0.1174999997
0.03249999881 -0.05249999836 0.112499997
0.03249999881 -0.0474999994 0.112499997
0.03750000149 -0.0474999994 0.112499997
0.03750000149 -0.04250000045 0.112499997
0.03249999881 -0.0474999994 0.1174999997
0.03750000149 -0.0474999994 0.1174999997
0.04250000045 -0.04250000045 0.08250000328
0.04250000045 -0.04250000045 0.1075000018
0.04250000045 -0.04250000045 0.112499997
0.04250000045 -0.04250000045 0.1174999997
0.03750000149 -0.03750000149 0.09250000119
0.03750000149 -0.03750000149 0.09749999642
0.03750000149 -0.03750000149 0.1024999991
0.04250000045 -0.03750000149 0.08250000328
0.04250000045 -0.03249999881 0.08250000328
0.0474999994 -0.03249999881 0.08250000328
0.04250000045 -0.03750000149 0.08749999851
0.04250000045 -0.03249999881 0.08749999851
0.0474999994 -0.03249999881 0.08749999851
0.0474999994 -0.02749999985 0.08250000328
0.0474999994 -0.02749999985 0.08749999851
0.05249999836 -0.02749999985 0.08250000328
0.05249999836 -0.02250000089 0.08250000328
0.05249999836 -0.02749999985 0.08749999851
0.05249999836 -0.02250000089 0.08749999851
0.04250000045 -0.03750000149 0.09250000119
0.04250000045 -0.03249999881 0.09250000119
0.0474999994 -0.03249999881 0.09250000119
0.04250000045 -0.03750000149 0.09749999642
0.04250000045 -0.03249999881 0.09749999642
0.0474999994 -0.03249999881 0.09749999642
0.0474999994 -0.02749999985 0.09250000119
0.0474999994 -0.02749999985 0.09749999642
0.05249999836 -0.02749999985 0.09250000119
0.05249999836 -0.02250000089 0.09250000119
0.05750000104 -0.02250000089 0.09250000119
0.05249999836 -0.02749999985 0.09749999642
0.05249999836 -0.02250000089 0.09749999642
0.05750000104 -0.02250000089 0.09749999642
0.05249999836 -0.01750000007 0.08250000328
0.05249999836 -0.01250000019 0.08250000328
0.05750000104 -0.01250000019 0.08250000328
0.05750000104 -0.01750000007 0.08749999851
0.05750000104 -0.01250000019 0.08749999851
0.05750000104 -0.007499999832 0.08250000328
0.05750000104 -0.002499999944 0.08250000328
0.05750000104 -0.007499999832 0.08749999851
0.05750000104 -0.002499999944 0.08749999851
0.05750000104 -0.01750000007 0.09250000119
0.05750000104 -0.01250000019 0.09250000119
0.05750000104 -0.01750000007 0.09749999642
0.05750000104 -0.01250000019 0.09749999642
0.05750000104 -0.007499999832 0.09250000119
0.05750000104 -0.002499999944 0.09250000119
0.05750000104 -0.007499999832 0.09749999642
0.0625 -0.007499999832 0.09250000119
0.0625 -0.002499999944 0.09250000119
0.0625 -0.007499999832 0.09749999642
0.0625 -0.002499999944 0.09749999642
0.04250000045 -0.03750000149 0.1024999991
0.04250000045 -0.03249999881 0.1024999991
0.0474999994 -0.03249999881 0.1024999991
0.0474999994 -0.03750000149 0.1075000018
0.0474999994 -0.03249999881 0.1075000018
0.05249999836 -0.03249999881 0.1024999991
0.05249999836 -0.03249999881 0.1075000018
0.05249999836 -0.02749999985 0.1024999991
0.05249999836 -0.02250000089 0.1024999991
0.05750000104 -0.02250000089 0.1024999991
0.05249999836 -0.02749999985 0.1075000018
0.05249999836 -0.02250000089 0.1075000018
0.05750000104 -0.02250000089 0.1075000018
0.04250000045 -0.03750000149 0.112499997
0.0474999994 -0.03750000149 0.112499997
0.0474999994 -0.03249999881 0.112499997
0.04250000045 -0.03750000149 0.1174999997
0.0474999994 -0.03750000149 0.1174999997
0.0474999994 -0.03249999881 0.1174999997
0.05249999836 -0.03249999881 0.112499997
0.05249999836 -0.03249999881 0.1174999997
0.05249999836 -0.02749999985 0.112499997
0.05249999836 -0.02250000089 0.112499997
0.05750000104 -0.02250000089 0.112499997
0.05249999836 -0.02749999985 0.1174999997
0.05249999836 -0.02250000089 0.1174999997
0.05750000104 -0.02250000089 0.1174999997
0.05750000104 -0.01750000007 0.1024999991
0.05750000104 -0.01250000019 0.1024999991
0.05750000104 -0.01750000007 0.1075000018
0.05750000104 -0.01250000019 0.1075000018
0.05750000104 -0.007499999832 0.1024999991
0.05750000104 -0.002499999944 0.1024999991
0.05750000104 -0.007499999832 0.1075000018
0.05750000104 -0.002499999944 0.1075000018
0.05750000104 -0.01750000007 0.112499997
0.05750000104 -0.01250000019 0.112499997
0.05750000104 -0.01750000007 0.1174999997
0.05750000104 -0.01250000019 0.1174999997
0.05750000104 -0.007499999832 0.112499997
0.05750000104 -0.002499999944 0.112499997
0.05750000104 -0.007499999832 0.1174999997
0.0625 -0.007499999832 0.1024999991
0.0625 -0.002499999944 0.1024999991
0.0625 -0.007499999832 0.1075000018
0.0625 -0.002499999944 0.1075000018
0.0625 -0.007499999832 0.112499997
0.0625 -0.002499999944 0.112499997
0.0625 -0.007499999832 0.1174999997
0.0625 -0.002499999944 0.1174999997
0.002499999944 -0.0625 0.1225000024
0.002499999944 -0.05750000104 0.1274999976
0.01750000007 -0.05750000104 0.1225000024
0.01250000019 -0.05750000104 0.1274999976
0.01750000007 -0.05750000104 0.1274999976
0.007499999832 -0.05750000104 0.1324999928
0.002499999944 -0.05750000104 0.137500003
0.007499999832 -0.05750000104 0.137500003
0.007499999832 -0.05249999836 0.137500003
0.01250000019 -0.05750000104 0.1324999928
0.01750000007 -0.05750000104 0.1324999928
0.01250000019 -0.05750000104 0.137500003
0.01750000007 -0.05750000104 0.137500003
0.01250000019 -0.05249999836 0.137500003
0.01750000007 -0.05249999836 0.137500003
0.02250000089 -0.05249999836 0.1225000024
0.02749999985 -0.05249999836 0.1225000024
0.02250000089 -0.05750000104 0.1274999976
0.02250000089 -0.05249999836 0.1274999976
0.02749999985 -0.05249999836 0.1274999976
0.03249999881 -0.05249999836 0.1225000024
0.03249999881 -0.05249999836 0.1274999976
0.03249999881 -0.0474999994 0.1225000024
0.03750000149 -0.0474999994 0.1225000024
0.03750000149 -0.04250000045 0.1225000024
0.03249999881 -0.0474999994 0.1274999976
0.03750000149 -0.0474999994 0.1274999976
0.03750000149 -0.04250000045 0.1274999976
0.02250000089 -0.05249999836 0.1324999928
0.02749999985 -0.05249999836 0.1324999928
0.02250000089 -0.05249999836 0.137500003
0.02749999985 -0.05249999836 0.137500003
0.02250000089 -0.0474999994 0.137500003
0.02749999985 -0.0474999994 0.137500003
0.03249999881 -0.0474999994 0.1324999928
0.03750000149 -0.0474999994 0.1324999928
0.03750000149 -0.04250000045 0.1324999928
0.03249999881 -0.0474999994 0.137500003
0.03750000149 -0.0474999994 0.137500003
0.03249999881 -0.04250000045 0.137500003
0.03750000149 -0.04250000045 0.137500003
0.01250000019 -0.05249999836 0.1424999982
0.01750000007 -0.05249999836 0.1424999982
0.01250000019 -0.05249999836 0.1474999934
0.01750000007 -0.05249999836 0.1525000036
0.01750000007 -0.05249999836 0.1574999988
0.02250000089 -0.05249999836 0.1424999982
0.02250000089 -0.05249999836 0.1474999934
0.02250000089 -0.0474999994 0.1424999982
0.02749999985 -0.0474999994 0.1424999982
0.02749999985 -0.0474999994 0.1474999934
0.03249999881 -0.0474999994 0.1424999982
0.03249999881 -0.04250000045 0.1424999982
0.03750000149 -0.04250000045 0.1424999982
0.03249999881 -0.0474999994 0.1474999934
0.03249999881 -0.04250000045 0.1474999934
0.03750000149 -0.04250000045 0.1474999934
0.02250000089 -0.05249999836 0.1525000036
0.02250000089 -0.0474999994 0.1525000036
0.02749999985 -0.0474999994 0.1525000036
0.02250000089 -0.0474999994 0.1574999988
0.02749999985 -0.0474999994 0.1574999988
0.03249999881 -0.04250000045 0.1525000036
0.03750000149 -0.04250000045 0.1525000036
0.03249999881 -0.04250000045 0.1574999988
0.03750000149 -0.04250000045 0.1574999988
0.04250000045 -0.04250000045 0.1225000024
0.04250000045 -0.04250000045 0.1274999976
0.04250000045 -0.04250000045 0.1324999928
0.04250000045 -0.04250000045 0.137500003
0.03249999881 -0.03750000149 0.137500003
0.03750000149 -0.03750000149 0.137500003
0.03249999881 -0.01750000007 0.137500003
0.03750000149 -0.01250000019 0.137500003
0.03750000149 -0.002499999944 0.137500003
0.03750000149 -0.03750000149 0.1424999982
0.03750000149 -0.03750000149 0.1474999934
0.03750000149 -0.03750000149 0.1525000036
0.03750000149 -0.03750000149 0.1574999988
0.04250000045 -0.03750000149 0.1225000024
0.0474999994 -0.03750000149 0.1225000024
0.0474999994 -0.03249999881 0.1225000024
0.04250000045 -0.03750000149 0.1274999976
0.0474999994 -0.03750000149 0.1274999976
0.0474999994 -0.03249999881 0.1274999976
0.05249999836 -0.03249999881 0.1225000024
0.05249999836 -0.03249999881 0.1274999976
0.05249999836 -0.02749999985 0.1225000024
0.05249999836 -0.02250000089 0.1225000024
0.05750000104 -0.02250000089 0.1225000024
0.05249999836 -0.02749999985 0.1274999976
0.05249999836 -0.02250000089 0.1274999976
0.05750000104 -0.02250000089 0.1274999976
0.04250000045 -0.03750000149 0.1324999928
0.0474999994 -0.03750000149 0.1324999928
0.0474999994 -0.03249999881 0.1324999928
0.04250000045 -0.03750000149 0.137500003
0.0474999994 -0.03750000149 0.137500003
0.04250000045 -0.03249999881 0.137500003
0.0474999994 -0.03249999881 0.137500003
0.05249999836 -0.03249999881 0.1324999928
0.05249999836 -0.03249999881 0.137500003
0.04250000045 -0.02749999985 0.137500003
0.0474999994 -0.02749999985 0.137500003
0.0474999994 -0.02250000089 0.137500003
0.05249999836 -0.02749999985 0.1324999928
0.05249999836 -0.02250000089 0.1324999928
0.05750000104 -0.02250000089 0.1324999928
0.05249999836 -0.02749999985 0.137500003
0.05249999836 -0.02250000089 0.137500003
0.05750000104 -0.02250000089 0.137500003
0.05750000104 -0.01750000007 0.1225000024
0.05750000104 -0.01250000019 0.1225000024
0.05750000104 -0.01750000007 0.1274999976
0.05750000104 -0.01250000019 0.1274999976
0.05750000104 -0.007499999832 0.1225000024
0.05750000104 -0.002499999944 0.1225000024
0.05750000104 -0.007499999832 0.1274999976
0.05750000104 -0.002499999944 0.1274999976
0.0474999994 -0.01750000007 0.137500003
0.0474999994 -0.01250000019 0.137500003
0.05750000104 -0.01750000007 0.1324999928
0.05750000104 -0.01250000019 0.1324999928
0.05249999836 -0.01750000007 0.137500003
0.05750000104 -0.01750000007 0.137500003
0.05249999836 -0.01250000019 0.137500003
0.05750000104 -0.01250000019 0.137500003
0.04250000045 -0.007499999832 0.137500003
0.04250000045 -0.002499999944 0.137500003
0.0474999994 -0.002499999944 0.137500003
0.05750000104 -0.007499999832 0.1324999928
0.05750000104 -0.002499999944 0.1324999928
0.05249999836 -0.007499999832 0.137500003
0.05750000104 -0.007499999832 0.137500003
0.05249999836 -0.002499999944 0.137500003
0.05750000104 -0.002499999944 0.137500003
0.0625 -0.007499999832 0.1225000024
0.0625 -0.002499999944 0.1225000024
0.0625 -0.007499999832 0.1274999976
0.0625 -0.002499999944 0.1274999976
0.04250000045 -0.03750000149 0.1424999982
0.04250000045 -0.03249999881 0.1424999982
0.0474999994 -0.03249999881 0.1424999982
0.04250000045 -0.03750000149 0.1474999934
0.04250000045 -0.03249999881 0.1474999934
0.0474999994 -0.03249999881 0.1474999934
0.04250000045 -0.02749999985 0.1424999982
0.0474999994 -0.02749999985 0.1424999982
0.0474999994 -0.02250000089 0.1424999982
0.0474999994 -0.02749999985 0.1474999934
0.0474999994 -0.02250000089 0.1474999934
0.05249999836 -0.02250000089 0.1424999982
0.05249999836 -0.02250000089 0.1474999934
0.04250000045 -0.03750000149 0.1525000036
0.04250000045 -0.03249999881 0.1525000036
0.0474999994 -0.03249999881 0.1525000036
0.04250000045 -0.03750000149 0.1574999988
0.04250000045 -0.03249999881 0.1574999988
0.0474999994 -0.03249999881 0.1574999988
0.0474999994 -0.02749999985 0.1525000036
0.0474999994 -0.02250000089 0.1525000036
0.0474999994 -0.02749999985 0.1574999988
0.0474999994 -0.02250000089 0.1574999988
0.05249999836 -0.02250000089 0.1525000036
0.05249999836 -0.02250000089 0.1574999988
0.0474999994 -0.01250000019 0.1424999982
0.05249999836 -0.01750000007 0.1424999982
0.05249999836 -0.01250000019 0.1424999982
0.05249999836 -0.01750000007 0.1474999934
0.05249999836 -0.01250000019 0.1474999934
0.05249999836 -0.007499999832 0.1424999982
0.05249999836 -0.002499999944 0.1424999982
0.05249999836 -0.007499999832 0.1474999934
0.05249999836 -0.002499999944 0.1474999934
0.05249999836 -0.01750000007 0.1525000036
0.05249999836 -0.01250000019 0.1525000036
0.05249999836 -0.01750000007 0.1574999988
0.05249999836 -0.01250000019 0.1574999988
0.05249999836 -0.007499999832 0.1525000036
0.05249999836 -0.002499999944 0.1525000036
0.05249999836 -0.007499999832 0.1574999988
0.05249999836 -0.002499999944 0.1574999988
0.007499999832 -0.05249999836 0.1675000042
0.01250000019 -0.05249999836 0.162499994
0.01750000007 -0.05249999836 0.162499994
0.01250000019 -0.05249999836 0.1675000042
0.01750000007 -0.05249999836 0.1724999994
0.01750000007 -0.05249999836 0.1774999946
0.02250000089 -0.05249999836 0.162499994
0.02250000089 -0.05249999836 0.1675000042
0.02250000089 -0.0474999994 0.162499994
0.02749999985 -0.0474999994 0.162499994
0.02749999985 -0.0474999994 0.1675000042
0.03249999881 -0.0474999994 0.162499994
0.03249999881 -0.04250000045 0.162499994
0.03750000149 -0.04250000045 0.162499994
0.03249999881 -0.0474999994 0.1675000042
0.03249999881 -0.04250000045 0.1675000042
0.03750000149 -0.04250000045 0.1675000042
0.02250000089 -0.0474999994 0.1724999994
0.02749999985 -0.0474999994 0.1724999994
0.02250000089 -0.0474999994 0.1774999946
0.02749999985 -0.0474999994 0.1774999946
0.03249999881 -0.04250000045 0.1724999994
0.03750000149 -0.04250000045 0.1724999994
0.03249999881 -0.0474999994 0.1774999946
0.03249999881 -0.04250000045 0.1774999946
0.03750000149 -0.04250000045 0.1774999946
0.007499999832 -0.05249999836 0.1825000048
0.007499999832 -0.05249999836 0.1875
0.01250000019 -0.05249999836 0.1825000048
0.01750000007 -0.05249999836 0.1825000048
0.01250000019 -0.05249999836 0.1875
0.01750000007 -0.05249999836 0.1924999952
0.01750000007 -0.05249999836 0.1975000054
0.02250000089 -0.05249999836 0.1825000048
0.02250000089 -0.05249999836 0.1875
0.02250000089 -0.0474999994 0.1825000048
0.02749999985 -0.0474999994 0.1825000048
0.02749999985 -0.0474999994 0.1875
0.03249999881 -0.0474999994 0.1825000048
0.03249999881 -0.04250000045 0.1825000048
0.03750000149 -0.04250000045 0.1825000048
0.03249999881 -0.04250000045 0.1875
0.03750000149 -0.04250000045 0.1875
0.02250000089 -0.0474999994 0.1924999952
0.02749999985 -0.0474999994 0.1924999952
0.02250000089 -0.0474999994 0.1975000054
0.02749999985 -0.0474999994 0.1975000054
0.03249999881 -0.04250000045 0.1924999952
0.03750000149 -0.04250000045 0.1924999952
0.03249999881 -0.0474999994 0.1975000054
0.03249999881 -0.04250000045 0.1975000054
0.03750000149 -0.04250000045 0.1975000054
0.03750000149 -0.03750000149 0.162499994
0.03750000149 -0.03750000149 0.1675000042
0.03750000149 -0.03750000149 0.1724999994
0.03750000149 -0.03750000149 0.1774999946
0.03750000149 -0.03750000149 0.1825000048
0.03750000149 -0.03750000149 0.1875
0.03750000149 -0.03750000149 0.1924999952
0.03750000149 -0.03750000149 0.1975000054
0.04250000045 -0.03750000149 0.162499994
0.04250000045 -0.03249999881 0.162499994
0.0474999994 -0.03249999881 0.162499994
0.04250000045 -0.03750000149 0.1675000042
0.04250000045 -0.03249999881 0.1675000042
0.0474999994 -0.03249999881 0.1675000042
0.0474999994 -0.02749999985 0.162499994
0.0474999994 -0.02250000089 0.162499994
0.0474999994 -0.02749999985 0.1675000042
0.0474999994 -0.02250000089 0.1675000042
0.05249999836 -0.02250000089 0.162499994
0.05249999836 -0.02250000089 0.1675000042
0.04250000045 -0.03750000149 0.1724999994
0.04250000045 -0.03249999881 0.1724999994
0.0474999994 -0.03249999881 0.1724999994
0.04250000045 -0.03750000149 0.1774999946
0.04250000045 -0.03249999881 0.1774999946
0.0474999994 -0.03249999881 0.1774999946
0.0474999994 -0.02749999985 0.1724999994
0.0474999994 -0.02250000089 0.1724999994
0.0474999994 -0.02749999985 0.1774999946
0.0474999994 -0.02250000089 0.1774999946
0.05249999836 -0.02250000089 0.1724999994
0.05249999836 -0.02250000089 0.1774999946
0.05249999836 -0.01750000007 0.162499994
0.05249999836 -0.01250000019 0.162499994
0.05249999836 -0.01750000007 0.1675000042
0.05249999836 -0.01250000019 0.1675000042
0.05249999836 -0.007499999832 0.162499994
0.05249999836 -0.002499999944 0.162499994
0.05249999836 -0.007499999832 0.1675000042
0.05249999836 -0.002499999944 0.1675000042
0.05249999836 -0.01750000007 0.1724999994
0.05249999836 -0.01250000019 0.1724999994
0.05249999836 -0.01750000007 0.1774999946
0.05249999836 -0.01250000019 0.1774999946
0.05249999836 -0.007499999832 0.1724999994
0.05249999836 -0.002499999944 0.1724999994
0.05249999836 -0.007499999832 0.1774999946
0.05249999836 -0.002499999944 0.1774999946
0.04250000045 -0.03750000149 0.1825000048
0.04250000045 -0.03249999881 0.1825000048
0.0474999994 -0.03249999881 0.1825000048
0.04250000045 -0.03750000149 0.1875
0.04250000045 -0.03249999881 0.1875
0.0474999994 -0.03249999881 0.1875
0.0474999994 -0.02749999985 0.1825000048
0.0474999994 -0.02250000089 0.1825000048
0.0474999994 -0.02749999985 0.1875
0.0474999994 -0.02250000089 0.1875
0.05249999836 -0.02250000089 0.1825000048
0.05249999836 -0.02250000089 0.1875
0.04250000045 -0.03750000149 0.1924999952
0.04250000045 -0.03249999881 0.1924999952
0.0474999994 -0.03249999881 0.1924999952
0.04250000045 -0.03750000149 0.1975000054
0.04250000045 -0.03249999881 0.1975000054
0.0474999994 -0.03249999881 0.1975000054
0.0474999994 -0.02749999985 0.1924999952
0.0474999994 -0.02250000089 0.1924999952
0.0474999994 -0.02749999985 0.1975000054
0.0474999994 -0.02250000089 0.1975000054
0.05249999836 -0.02250000089 0.1924999952
0.05249999836 -0.02250000089 0.1975000054
0.05249999836 -0.01750000007 0.1825000048
0.05249999836 -0.01250000019 0.1825000048
0.05249999836 -0.01750000007 0.1875
0.05249999836 -0.01250000019 0.1875
0.05249999836 -0.007499999832 0.1825000048
0.05249999836 -0.002499999944 0.1825000048
0.05249999836 -0.007499999832 0.1875
0.05249999836 -0.002499999944 0.1875
0.05249999836 -0.01750000007 0.1924999952
0.05249999836 -0.01250000019 0.1924999952
0.05249999836 -0.01750000007 0.1975000054
0.05249999836 -0.01250000019 0.1975000054
0.05249999836 -0.007499999832 0.1924999952
0.05249999836 -0.002499999944 0.1924999952
0.05249999836 -0.007499999832 0.1975000054
0.05249999836 -0.002499999944 0.1975000054
0.01750000007 -0.05249999836 0.2025000006
0.01750000007 -0.05249999836 0.2074999958
0.01750000007 -0.05249999836 0.212500006
0.01250000019 -0.05750000104 0.2175000012
0.02250000089 -0.05249999836 0.2025000006
0.02250000089 -0.05249999836 0.2074999958
0.02749999985 -0.0474999994 0.2025000006
0.02749999985 -0.0474999994 0.2074999958
0.03249999881 -0.0474999994 0.2025000006
0.03249999881 -0.04250000045 0.2025000006
0.03750000149 -0.04250000045 0.2025000006
0.03249999881 -0.04250000045 0.2074999958
0.03750000149 -0.04250000045 0.2074999958
0.02250000089 -0.05249999836 0.212500006
0.02250000089 -0.05249999836 0.2175000012
0.02749999985 -0.0474999994 0.212500006
0.02749999985 -0.0474999994 0.2175000012
0.03249999881 -0.0474999994 0.212500006
0.03249999881 -0.04250000045 0.212500006
0.03249999881 -0.0474999994 0.2175000012
0.03249999881 -0.04250000045 0.2175000012
0.03750000149 -0.04250000045 0.2175000012
0.01750000007 -0.05750000104 0.2224999964
0.01750000007 -0.05750000104 0.2275000066
0.01750000007 -0.05750000104 0.2325000018
0.01750000007 -0.05750000104 0.237499997
0.02250000089 -0.05249999836 0.2224999964
0.02749999985 -0.05249999836 0.2224999964
0.02250000089 -0.05249999836 0.2275000066
0.02749999985 -0.05249999836 0.2275000066
0.02749999985 -0.0474999994 0.2224999964
0.02749999985 -0.0474999994 0.2275000066
0.03249999881 -0.0474999994 0.2224999964
0.03750000149 -0.04250000045 0.2224999964
0.03249999881 -0.0474999994 0.2275000066
0.03750000149 -0.04250000045 0.2275000066
0.02250000089 -0.05750000104 0.2325000018
0.02250000089 -0.05249999836 0.2325000018
0.02749999985 -0.05249999836 0.2325000018
0.02250000089 -0.05750000104 0.237499997
0.02749999985 -0.05750000104 0.237499997
0.02749999985 -0.05249999836 0.237499997
0.03249999881 -0.05249999836 0.237499997
0.03249999881 -0.0474999994 0.2325000018
0.03750000149 -0.04250000045 0.2325000018
0.03249999881 -0.0474999994 0.237499997
0.03750000149 -0.0474999994 0.237499997
0.03750000149 -0.04250000045 0.237499997
0.04250000045 -0.04250000045 0.2275000066
0.04250000045 -0.04250000045 0.2325000018
0.04250000045 -0.04250000045 0.237499997
0.03750000149 -0.03750000149 0.2025000006
0.03750000149 -0.03750000149 0.2074999958
0.03750000149 -0.03750000149 0.212500006
0.03750000149 -0.03249999881 0.212500006
0.03750000149 -0.03750000149 0.2175000012
0.03750000149 -0.03249999881 0.2175000012
0.03750000149 -0.03750000149 0.2224999964
0.03750000149 -0.01250000019 0.237499997
0.03249999881 -0.007499999832 0.237499997
0.03750000149 -0.007499999832 0.237499997
0.03249999881 -0.002499999944 0.237499997
0.03750000149 -0.002499999944 0.237499997
0.04250000045 -0.03750000149 0.2025000006
0.04250000045 -0.03249999881 0.2025000006
0.0474999994 -0.03249999881 0.2025000006
0.04250000045 -0.03750000149 0.2074999958
0.04250000045 -0.03249999881 0.2074999958
0.0474999994 -0.03249999881 0.2074999958
0.0474999994 -0.02749999985 0.2025000006
0.0474999994 -0.02250000089 0.2025000006
0.0474999994 -0.02749999985 0.2074999958
0.0474999994 -0.02250000089 0.2074999958
0.05249999836 -0.02250000089 0.2025000006
0.05249999836 -0.02250000089 0.2074999958
0.04250000045 -0.03249999881 0.212500006
0.04250000045 -0.03249999881 0.2175000012
0.04250000045 -0.02749999985 0.212500006
0.0474999994 -0.02749999985 0.212500006
0.0474999994 -0.02250000089 0.212500006
0.04250000045 -0.02749999985 0.2175000012
0.0474999994 -0.02749999985 0.2175000012
0.04250000045 -0.02250000089 0.2175000012
0.0474999994 -0.02250000089 0.2175000012
0.05249999836 -0.01750000007 0.2025000006
0.05249999836 -0.01250000019 0.2025000006
0.05249999836 -0.01750000007 0.2074999958
0.05249999836 -0.01250000019 0.2074999958
0.05249999836 -0.007499999832 0.2025000006
0.05249999836 -0.002499999944 0.2025000006
0.05249999836 -0.007499999832 0.2074999958
0.05249999836 -0.002499999944 0.2074999958
0.0474999994 -0.01750000007 0.212500006
0.0474999994 -0.01750000007 0.2175000012
0.0474999994 -0.01250000019 0.2175000012
0.05249999836 -0.01750000007 0.212500006
0.05249999836 -0.01250000019 0.212500006
0.05249999836 -0.01250000019 0.2175000012
0.0474999994 -0.007499999832 0.2175000012
0.0474999994 -0.002499999944 0.2175000012
0.05249999836 -0.007499999832 0.212500006
0.05249999836 -0.002499999944 0.212500006
0.05249999836 -0.007499999832 0.2175000012
0.05249999836 -0.002499999944 0.2175000012
0.04250000045 -0.03750000149 0.2224999964
0.04250000045 -0.03249999881 0.2224999964
0.04250000045 -0.03750000149 0.2275000066
0.04250000045 -0.03249999881 0.2275000066
0.0474999994 -0.03249999881 0.2275000066
0.04250000045 -0.02250000089 0.2224999964
0.0474999994 -0.02250000089 0.2224999964
0.0474999994 -0.02749999985 0.2275000066
0.0474999994 -0.02250000089 0.2275000066
0.04250000045 -0.03750000149 0.2325000018
0.04250000045 -0.03249999881 0.2325000018
0.0474999994 -0.03249999881 0.2325000018
0.04250000045 -0.03750000149 0.237499997
0.04250000045 -0.03249999881 0.237499997
0.04250000045 -0.02749999985 0.2325000018
0.0474999994 -0.02749999985 0.2325000018
0.04250000045 -0.02250000089 0.2325000018
0.0474999994 -0.02250000089 0.2325000018
0.04250000045 -0.02749999985 0.237499997
0.04250000045 -0.02250000089 0.237499997
0.04250000045 -0.01750000007 0.2224999964
0.0474999994 -0.01750000007 0.2224999964
0.04250000045 -0.01250000019 0.2224999964
0.0474999994 -0.01250000019 0.2224999964
0.04250000045 -0.01250000019 0.2275000066
0.0474999994 -0.007499999832 0.2224999964
0.0474999994 -0.002499999944 0.2224999964
0.04250000045 -0.007499999832 0.2275000066
0.0474999994 -0.007499999832 0.2275000066
0.04250000045 -0.002499999944 0.2275000066
0.0474999994 -0.002499999944 0.2275000066
0.04250000045 -0.01750000007 0.2325000018
0.0474999994 -0.01750000007 0.2325000018
0.04250000045 -0.01250000019 0.2325000018
0.0474999994 -0.01250000019 0.2325000018
0.04250000045 -0.01750000007 0.237499997
0.04250000045 -0.01250000019 0.237499997
0.04250000045 -0.007499999832 0.2325000018
0.04250000045 -0.007499999832 0.237499997
0.04250000045 -0.002499999944 0.237499997
0.01750000007 -0.0625 0.2425000072
0.01750000007 -0.0625 0.2475000024
0.01250000019 -0.06750000268 0.2524999976
0.01750000007 -0.0625 0.2524999976
0.01250000019 -0.06750000268 0.2574999928
0.01750000007 -0.06750000268 0.2574999928
0.02250000089 -0.0625 0.2475000024
0.02250000089 -0.0625 0.2524999976
0.02250000089 -0.0625 0.2574999928
0.02250000089 -0.05750000104 0.2425000072
0.02749999985 -0.05249999836 0.2425000072
0.02749999985 -0.05750000104 0.2475000024
0.02749999985 -0.05249999836 0.2475000024
0.03249999881 -0.05249999836 0.2425000072
0.03249999881 -0.05249999836 0.2475000024
0.03249999881 -0.0474999994 0.2425000072
0.03750000149 -0.0474999994 0.2425000072
0.03750000149 -0.04250000045 0.2425000072
0.03750000149 -0.0474999994 0.2475000024
0.03750000149 -0.04250000045 0.2475000024
0.02250000089 -0.05750000104 0.2524999976
0.02749999985 -0.05750000104 0.2524999976
0.02749999985 -0.05750000104 0.2574999928
0.03249999881 -0.05249999836 0.2524999976
0.03249999881 -0.05750000104 0.2574999928
0.03249999881 -0.05249999836 0.2574999928
0.03750000149 -0.05249999836 0.2574999928
0.03750000149 -0.0474999994 0.2524999976
0.03750000149 -0.04250000045 0.2524999976
0.03750000149 -0.0474999994 0.2574999928
0.03750000149 -0.04250000045 0.2574999928
0.007499999832 -0.07249999791 0.2624999881
0.01250000019 -0.07249999791 0.2675000131
0.01750000007 -0.06750000268 0.2624999881
0.01750000007 -0.06750000268 0.2675000131
0.02250000089 -0.0625 0.2624999881
0.02749999985 -0.0625 0.2624999881
0.02250000089 -0.06750000268 0.2675000131
0.02250000089 -0.0625 0.2675000131
0.02749999985 -0.0625 0.2675000131
0.02749999985 -0.0625 0.2725000083
0.03249999881 -0.0625 0.2725000083
0.02749999985 -0.05750000104 0.2624999881
0.03249999881 -0.05750000104 0.2624999881
0.03249999881 -0.05249999836 0.2624999881
0.03750000149 -0.05249999836 0.2624999881
0.03249999881 -0.05750000104 0.2675000131
0.03249999881 -0.05249999836 0.2675000131
0.03750000149 -0.0474999994 0.2624999881
0.03750000149 -0.04250000045 0.2624999881
0.03249999881 -0.0474999994 0.2675000131
0.03750000149 -0.0474999994 0.2675000131
0.03249999881 -0.04250000045 0.2675000131
0.03750000149 -0.04250000045 0.2675000131
0.03249999881 -0.05750000104 0.2725000083
0.03249999881 -0.05249999836 0.2725000083
0.03249999881 -0.05750000104 0.2775000036
0.03249999881 -0.05249999836 0.2775000036
0.03249999881 -0.0474999994 0.2725000083
0.03249999881 -0.04250000045 0.2725000083
0.03249999881 -0.0474999994 0.2775000036
0.03249999881 -0.04250000045 0.2775000036
0.04250000045 -0.04250000045 0.2425000072
0.04250000045 -0.04250000045 0.2475000024
0.03750000149 -0.03750000149 0.2475000024
0.03750000149 -0.03249999881 0.2475000024
0.03750000149 -0.02749999985 0.2425000072
0.03750000149 -0.02250000089 0.2425000072
0.03750000149 -0.02749999985 0.2475000024
0.03249999881 -0.02250000089 0.2475000024
0.03750000149 -0.02250000089 0.2475000024
0.03750000149 -0.03750000149 0.2524999976
0.03750000149 -0.03249999881 0.2524999976
0.03750000149 -0.03750000149 0.2574999928
0.03249999881 -0.03249999881 0.2574999928
0.03750000149 -0.03249999881 0.2574999928
0.02749999985 -0.02250000089 0.2524999976
0.02749999985 -0.02749999985 0.2574999928
0.02749999985 -0.02250000089 0.2574999928
0.03249999881 -0.02749999985 0.2524999976
0.03750000149 -0.02749999985 0.2524999976
0.03249999881 -0.02250000089 0.2524999976
0.03249999881 -0.02749999985 0.2574999928
0.03249999881 -0.02250000089 0.2574999928
0.007499999832 -0.002499999944 0.2475000024
0.01750000007 -0.007499999832 0.2475000024
0.01250000019 -0.002499999944 0.2475000024
0.01750000007 -0.002499999944 0.2475000024
0.007499999832 -0.01250000019 0.2574999928
0.01250000019 -0.01250000019 0.2524999976
0.01750000007 -0.01250000019 0.2524999976
0.01750000007 -0.01750000007 0.2574999928
0.01250000019 -0.01250000019 0.2574999928
0.01750000007 -0.01250000019 0.2574999928
0.007499999832 -0.007499999832 0.2524999976
0.002499999944 -0.002499999944 0.2524999976
0.007499999832 -0.002499999944 0.2524999976
0.002499999944 -0.007499999832 0.2574999928
0.007499999832 -0.007499999832 0.2574999928
0.002499999944 -0.002499999944 0.2574999928
0.01250000019 -0.007499999832 0.2524999976
0.01750000007 -0.007499999832 0.2524999976
0.01250000019 -0.002499999944 0.2524999976
0.01250000019 -0.007499999832 0.2574999928
0.02749999985 -0.01250000019 0.2425000072
0.02749999985 -0.01750000007 0.2475000024
0.02250000089 -0.01250000019 0.2475000024
0.02749999985 -0.01250000019 0.2475000024
0.03750000149 -0.01750000007 0.2425000072
0.03249999881 -0.01250000019 0.2425000072
0.03750000149 -0.01250000019 0.2425000072
0.03249999881 -0.01750000007 0.2475000024
0.03750000149 -0.01750000007 0.2475000024
0.03249999881 -0.01250000019 0.2475000024
0.02749999985 -0.007499999832 0.2425000072
0.02250000089 -0.002499999944 0.2425000072
0.02749999985 -0.002499999944 0.2425000072
0.02250000089 -0.007499999832 0.2475000024
0.02749999985 -0.007499999832 0.2475000024
0.02250000089 -0.002499999944 0.2475000024
0.03249999881 -0.007499999832 0.2425000072
0.03249999881 -0.002499999944 0.2425000072
0.02250000089 -0.01750000007 0.2524999976
0.02749999985 -0.01750000007 0.2524999976
0.02250000089 -0.01250000019 0.2524999976
0.02250000089 -0.01750000007 0.2574999928
0.03249999881 -0.01750000007 0.2524999976
0.02250000089 -0.007499999832 0.2524999976
0.01750000007 -0.02250000089 0.2675000131
0.01750000007 -0.02250000089 0.2725000083
0.01750000007 -0.02250000089 0.2775000036
0.02749999985 -0.03249999881 0.2675000131
0.03249999881 -0.03750000149 0.2624999881
0.03750000149 -0.03750000149 0.2624999881
0.03249999881 -0.03249999881 0.2624999881
0.03249999881 -0.03750000149 0.2675000131
0.03249999881 -0.03249999881 0.2675000131
0.02749999985 -0.02749999985 0.2624999881
0.02250000089 -0.02250000089 0.2624999881
0.02749999985 -0.02250000089 0.2624999881
0.02250000089 -0.02749999985 0.2675000131
0.02749999985 -0.02749999985 0.2675000131
0.02250000089 -0.02250000089 0.2675000131
0.02749999985 -0.02250000089 0.2675000131
0.03249999881 -0.02749999985 0.2624999881
0.03249999881 -0.02749999985 0.2675000131
0.02749999985 -0.03249999881 0.2725000083
0.02749999985 -0.03249999881 0.2775000036
0.03249999881 -0.03750000149 0.2725000083
0.03249999881 -0.03249999881 0.2725000083
0.03249999881 -0.03750000149 0.2775000036
0.03249999881 -0.03249999881 0.2775000036
0.02250000089 -0.02749999985 0.2725000083
0.02749999985 -0.02749999985 0.2725000083
0.02250000089 -0.02250000089 0.2725000083
0.02250000089 -0.02749999985 0.2775000036
0.02749999985 -0.02749999985 0.2775000036
0.02250000089 -0.02250000089 0.2775000036
0.002499999944 -0.01250000019 0.2624999881
0.007499999832 -0.01250000019 0.2624999881
0.002499999944 -0.01250000019 0.2675000131
0.007499999832 -0.01250000019 0.2675000131
0.01250000019 -0.01750000007 0.2624999881
0.01750000007 -0.01750000007 0.2624999881
0.01250000019 -0.01250000019 0.2624999881
0.01250000019 -0.01750000007 0.2675000131
0.01750000007 -0.01750000007 0.2675000131
0.002499999944 -0.007499999832 0.2624999881
0.002499999944 -0.01250000019 0.2725000083
0.007499999832 -0.01250000019 0.2725000083
0.002499999944 -0.01250000019 0.2775000036
0.007499999832 -0.01250000019 0.2775000036
0.01250000019 -0.01750000007 0.2725000083
0.01750000007 -0.01750000007 0.2725000083
0.01250000019 -0.01750000007 0.2775000036
0.01750000007 -0.01750000007 0.2775000036
0.01250000019 -0.01250000019 0.2775000036
0.002499999944 -0.007499999832 0.2775000036
0.007499999832 -0.007499999832 0.2775000036
0.002499999944 -0.002499999944 0.2775000036
0.007499999832 -0.002499999944 0.2775000036
0.01250000019 -0.002499999944 0.2775000036
0.04250000045 -0.03750000149 0.2425000072
0.04250000045 -0.03249999881 0.2425000072
0.04250000045 -0.03750000149 0.2475000024
0.04250000045 -0.03249999881 0.2475000024
0.04250000045 -0.02749999985 0.2425000072
0.04250000045 -0.02250000089 0.2425000072
0.04250000045 -0.01750000007 0.2425000072
0.03249999881 -0.05249999836 0.2824999988
0.03249999881 -0.0474999994 0.2824999988
0.03249999881 -0.04250000045 0.2824999988
0.03249999881 -0.0474999994 0.287499994
0.03249999881 -0.04250000045 0.287499994
0.03249999881 -0.0474999994 0.2924999893
0.03249999881 -0.04250000045 0.2924999893
0.01750000007 -0.02250000089 0.2824999988
0.02749999985 -0.03249999881 0.2824999988
0.03249999881 -0.03750000149 0.2824999988
0.03249999881 -0.03249999881 0.2824999988
0.03249999881 -0.03750000149 0.287499994
0.02250000089 -0.02250000089 0.2824999988
0.01750000007 -0.01750000007 0.2824999988
0.01250000019 -0.01250000019 0.2824999988
0.01750000007 -0.01250000019 0.2824999988
0.01250000019 -0.007499999832 0.2824999988
0.01750000007 -0.007499999832 0.2824999988
0.01250000019 -0.002499999944 0.2824999988
0.01750000007 -0.002499999944 0.2824999988
0.02250000089 -0.01750000007 0.2824999988
0.02250000089 -0.01250000019 0.2824999988
0.02250000089 -0.01750000007 0.287499994
0.02749999985 -0.01750000007 0.287499994
0.02250000089 -0.01250000019 0.287499994
0.02749999985 -0.01250000019 0.287499994
0.03249999881 -0.01250000019 0.287499994
0.02250000089 -0.007499999832 0.2824999988
0.02749999985 -0.007499999832 0.2824999988
0.02250000089 -0.002499999944 0.2824999988
0.02749999985 -0.002499999944 0.2824999988
0.02749999985 -0.007499999832 0.287499994
0.02749999985 -0.002499999944 0.287499994
0.03249999881 -0.007499999832 0.287499994
0.03249999881 -0.002499999944 0.287499994
0.03750000149 -0.002499999944 0.287499994
0.03249999881 -0.01250000019 0.2924999893
0.03750000149 -0.01250000019 0.2924999893
0.03249999881 -0.007499999832 0.2924999893
0.03750000149 -0.007499999832 0.2924999893
0.03750000149 -0.002499999944 0.2924999893
0.04250000045 -0.002499999944 0.2924999893
0.04250000045 -0.007499999832 0.2975000143
0.04250000045 -0.002499999944 0.2975000143
0.0474999994 -0.002499999944 0.2975000143
0.0474999994 -0.002499999944 0.3025000095
0.05249999836 -0.002499999944 0.3025000095
0.3725000024 -0.2224999964 0.01250000019
0.3774999976 -0.2224999964 0.01250000019
0.3774999976 -0.2224999964 0.01750000007
0.3824999928 -0.2224999964 0.01250000019
0.3874999881 -0.2224999964 0.01250000019
0.3824999928 -0.2224999964 0.01750000007
0.3874999881 -0.2224999964 0.01750000007
0.3925000131 -0.2224999964 0.01250000019
0.3975000083 -0.2224999964 0.01250000019
0.3925000131 -0.2224999964 0.01750000007
0.3975000083 -0.2224999964 0.01750000007
0.3725000024 -0.2175000012 0.01250000019
0.3774999976 -0.2175000012 0.01250000019
0.3725000024 -0.212500006 0.01250000019
0.3774999976 -0.212500006 0.01250000019
0.3725000024 -0.2175000012 0.01750000007
0.3774999976 -0.2175000012 0.01750000007
0.3725000024 -0.212500006 0.01750000007
0.3774999976 -0.2074999958 0.01250000019
0.3725000024 -0.2025000006 0.01250000019
0.3725000024 -0.2074999958 0.01750000007
0.3774999976 -0.2074999958 0.01750000007
0.3774999976 -0.2025000006 0.01750000007
0.3774999976 -0.2224999964 0.02250000089
0.3725000024 -0.2224999964 0.02749999985
0.3774999976 -0.2224999964 0.02749999985
0.3774999976 -0.2224999964 0.03249999881
0.3725000024 -0.2224999964 0.03750000149
0.3774999976 -0.2224999964 0.03750000149
0.3824999928 -0.2224999964 0.02250000089
0.3874999881 -0.2224999964 0.02250000089
0.3824999928 -0.2224999964 0.02749999985
0.3874999881 -0.2224999964 0.02749999985
0.3925000131 -0.2224999964 0.02250000089
0.3975000083 -0.2224999964 0.02250000089
0.3925000131 -0.2224999964 0.02749999985
0.3975000083 -0.2224999964 0.02749999985
0.3824999928 -0.2224999964 0.03249999881
0.3874999881 -0.2224999964 0.03249999881
0.3824999928 -0.2224999964 0.03750000149
0.3874999881 -0.2224999964 0.03750000149
0.3925000131 -0.2224999964 0.03249999881
0.3975000083 -0.2224999964 0.03249999881
0.3925000131 -0.2224999964 0.03750000149
0.3975000083 -0.2224999964 0.03750000149
0.3725000024 -0.2175000012 0.02250000089
0.3774999976 -0.2175000012 0.02250000089
0.3774999976 -0.212500006 0.02250000089
0.3774999976 -0.2175000012 0.02749999985
0.3725000024 -0.212500006 0.02749999985
0.3725000024 -0.2074999958 0.02250000089
0.3774999976 -0.2074999958 0.02250000089
0.3725000024 -0.2025000006 0.02250000089
0.3774999976 -0.2025000006 0.02250000089
0.3725000024 -0.2074999958 0.02749999985
0.3774999976 -0.2074999958 0.02749999985
0.3725000024 -0.2025000006 0.02749999985
0.3774999976 -0.2025000006 0.02749999985
0.3725000024 -0.2175000012 0.03249999881
0.3774999976 -0.212500006 0.03249999881
0.3725000024 -0.2175000012 0.03750000149
0.3774999976 -0.2175000012 0.03750000149
0.3725000024 -0.2074999958 0.03249999881
0.3774999976 -0.2074999958 0.03249999881
0.3725000024 -0.2025000006 0.03249999881
0.3774999976 -0.2025000006 0.03249999881
0.3725000024 -0.2074999958 0.03750000149
0.3774999976 -0.2074999958 0.03750000149
0.3725000024 -0.2025000006 0.03750000149
0.3774999976 -0.2025000006 0.03750000149
0.3774999976 -0.1975000054 0.01250000019
0.3725000024 -0.1924999952 0.01250000019
0.3774999976 -0.1924999952 0.01250000019
0.3725000024 -0.1975000054 0.01750000007
0.3725000024 -0.1924999952 0.01750000007
0.3774999976 -0.1924999952 0.01750000007
0.3725000024 -0.1875 0.01250000019
0.3774999976 -0.1825000048 0.01250000019
0.3774999976 -0.1875 0.01750000007
0.3725000024 -0.1825000048 0.01750000007
0.3774999976 -0.1825000048 0.01750000007
0.3774999976 -0.1774999946 0.01250000019
0.3774999976 -0.1774999946 0.01750000007
0.3824999928 -0.1774999946 0.01250000019
0.3874999881 -0.1774999946 0.01250000019
0.3824999928 -0.1774999946 0.01750000007
0.3874999881 -0.1774999946 0.01750000007
0.3925000131 -0.1774999946 0.01250000019
0.3975000083 -0.1774999946 0.01250000019
0.3925000131 -0.1774999946 0.01750000007
0.3975000083 -0.1774999946 0.01750000007
0.3925000131 -0.1724999994 0.01750000007
0.3725000024 -0.1924999952 0.02250000089
0.3774999976 -0.1924999952 0.02250000089
0.3774999976 -0.1975000054 0.02749999985
0.3725000024 -0.1924999952 0.02749999985
0.3774999976 -0.1924999952 0.02749999985
0.3725000024 -0.1875 0.02250000089
0.3725000024 -0.1825000048 0.02250000089
0.3774999976 -0.1825000048 0.02250000089
0.3774999976 -0.1875 0.02749999985
0.3725000024 -0.1825000048 0.02749999985
0.3774999976 -0.1825000048 0.02749999985
0.3725000024 -0.1975000054 0.03249999881
0.3774999976 -0.1924999952 0.03249999881
0.3774999976 -0.1975000054 0.03750000149
0.3725000024 -0.1924999952 0.03750000149
0.3725000024 -0.1875 0.03249999881
0.3774999976 -0.1875 0.03249999881
0.3725000024 -0.1825000048 0.03249999881
0.3725000024 -0.1875 0.03750000149
0.3774999976 -0.1875 0.03750000149
0.3774999976 -0.1825000048 0.03750000149
0.3774999976 -0.1774999946 0.02250000089
0.3774999976 -0.1774999946 0.02749999985
0.3774999976 -0.1774999946 0.03249999881
0.3774999976 -0.1774999946 0.03750000149
0.3824999928 -0.1774999946 0.02250000089
0.3874999881 -0.1774999946 0.02250000089
0.3824999928 -0.1774999946 0.02749999985
0.3874999881 -0.1774999946 0.02749999985
0.3925000131 -0.1774999946 0.02250000089
0.3975000083 -0.1774999946 0.02250000089
0.3925000131 -0.1724999994 0.02250000089
0.3975000083 -0.1724999994 0.02250000089
0.3925000131 -0.1774999946 0.02749999985
0.3975000083 -0.1774999946 0.02749999985
0.3925000131 -0.1724999994 0.02749999985
0.3824999928 -0.1774999946 0.03249999881
0.3874999881 -0.1774999946 0.03249999881
0.3824999928 -0.1774999946 0.03750000149
0.3874999881 -0.1774999946 0.03750000149
0.3925000131 -0.1774999946 0.03249999881
0.3975000083 -0.1774999946 0.03249999881
0.3925000131 -0.1724999994 0.03249999881
0.3975000083 -0.1724999994 0.03249999881
0.3925000131 -0.1774999946 0.03750000149
0.3975000083 -0.1774999946 0.03750000149
0.3975000083 -0.1724999994 0.03750000149
0.3774999976 -0.2224999964 0.04250000045
0.3774999976 -0.2224999964 0.0474999994
0.3824999928 -0.2224999964 0.04250000045
0.3874999881 -0.2224999964 0.04250000045
0.3824999928 -0.2224999964 0.0474999994
0.3874999881 -0.2224999964 0.0474999994
0.3925000131 -0.2224999964 0.04250000045
0.3975000083 -0.2224999964 0.04250000045
0.3925000131 -0.2224999964 0.0474999994
0.3975000083 -0.2224999964 0.0474999994
0.3925000131 -0.2224999964 0.05249999836
0.3975000083 -0.2224999964 0.05249999836
0.3725000024 -0.2175000012 0.04250000045
0.3774999976 -0.2175000012 0.04250000045
0.3725000024 -0.212500006 0.04250000045
0.3774999976 -0.2175000012 0.0474999994
0.3774999976 -0.212500006 0.0474999994
0.3774999976 -0.2074999958 0.04250000045
0.3725000024 -0.2025000006 0.04250000045
0.3774999976 -0.2025000006 0.04250000045
0.3774999976 -0.2074999958 0.0474999994
0.3774999976 -0.2025000006 0.0474999994
0.3774999976 -0.2074999958 0.05249999836
0.3774999976 -0.2025000006 0.05249999836
0.3824999928 -0.2175000012 0.0474999994
0.3874999881 -0.2175000012 0.0474999994
0.3824999928 -0.212500006 0.0474999994
0.3874999881 -0.212500006 0.0474999994
0.3925000131 -0.2175000012 0.0474999994
0.3975000083 -0.2175000012 0.0474999994
0.3925000131 -0.212500006 0.0474999994
0.3975000083 -0.212500006 0.0474999994
0.3824999928 -0.2074999958 0.0474999994
0.3874999881 -0.2074999958 0.0474999994
0.3824999928 -0.2025000006 0.0474999994
0.3874999881 -0.2025000006 0.0474999994
0.3925000131 -0.2074999958 0.0474999994
0.3975000083 -0.2074999958 0.0474999994
