# .PCD v0.7 - Point Cloud Data file format
VERSION 0.7
FIELDS x y z rgb
SIZE 4 4 4 4
TYPE F F F F
COUNT 1 1 1 1
WIDTH 845
HEIGHT 1
VIEWPOINT 0 0 0 1 0 0 0
POINTS 845
DATA ascii
0.6127533913 -0.3593210578 0.01723680645 1.890010412e-38
0.6126515269 -0.3619127274 0.0172339417 1.880790849e-38
0.6125497818 -0.3645035326 0.01723107882 1.880790849e-38
0.6124480367 -0.3670935035 0.01722821593 1.880790849e-38
0.6123464108 -0.3696826398 0.01722535864 1.880790849e-38
0.6122447252 -0.3722708523 0.01722249761 1.880790849e-38
0.6121430993 -0.3748582602 0.01721963845 1.880790849e-38
0.612041533 -0.3774447739 0.01721678115 1.880790849e-38
0.6119399667 -0.3800304532 0.01721392572 1.880790849e-38
0.6118384004 -0.3826152384 0.01721106842 1.880790849e-38
0.6117368937 -0.3851991892 0.01720821299 1.880790849e-38
0.6116355062 -0.3877822757 0.01720535941 1.880790849e-38
0.611534059 -0.3903645277 0.01720250584 1.880790849e-38
0.6114326715 -0.3929459155 0.01719965413 1.880790849e-38
0.6113313437 -0.395526439 0.01719680429 1.880790849e-38
0.6112300158 -0.3981060982 0.01719395444 1.880790849e-38
0.6111287475 -0.4006849229 0.01719110459 1.880790849e-38
0.6110274196 -0.4032628536 0.01718825474 1.880790849e-38
0.6109262705 -0.4058400095 0.01718540862 1.880790849e-38
0.6108250022 -0.4084162116 0.0171825625 1.880790849e-38
0.6107239127 -0.4109916687 0.01717971824 1.880790849e-38
0.6106227636 -0.4135661423 0.01717687212 1.880790849e-38
0.6105217338 -0.4161399007 0.01717402972 1.880790849e-38
0.6104206443 -0.4187126756 0.01717118546 1.880790849e-38
0.6103196144 -0.4212846756 0.01716834307 1.880790849e-38
0.6471012235 0.4466738999 0.01540251356 1.862351723e-38
0.6469877362 0.4437955618 0.01539981272 1.871571286e-38
0.646874249 0.440918237 0.01539711095 1.871571286e-38
0.6467608213 0.4380419254 0.01539441105 1.871571286e-38
0.6466474533 0.435166657 0.01539171301 1.871571286e-38
0.6465340257 0.4322923124 0.0153890131 1.871571286e-38
0.6464207172 0.4294190705 0.01538631599 1.871571286e-38
0.6463074088 0.4265467525 0.01538361982 1.871571286e-38
0.6461941004 0.4236754477 0.0153809227 1.871571286e-38
0.6460809708 0.420805186 0.01537822932 1.871571286e-38
0.6459677815 0.4179359376 0.01537553594 1.871571286e-38
0.6458547115 0.4150677025 0.01537284348 1.871571286e-38
0.6457415819 0.4122004509 0.01537015196 1.871571286e-38
0.6456285715 0.4093341827 0.01536746137 1.871571286e-38
0.6455155015 0.4064689279 0.01536477078 1.871571286e-38
0.6454026103 0.4036047161 0.01536208298 1.871571286e-38
0.6452896595 0.4007414281 0.01535939425 1.871571286e-38
0.6451767683 0.3978792131 0.01535670739 1.871571286e-38
0.6450639367 0.3950179517 0.01535402145 1.871571286e-38
0.6449511051 0.3921577036 0.01535133552 1.871571286e-38
0.6448383927 0.3892984986 0.01534865238 1.871571286e-38
0.6447256207 0.3864402473 0.01534596831 1.871571286e-38
0.644612968 0.3835830092 0.01534328703 1.871571286e-38
0.6445002556 0.3807267547 0.01534060482 1.871571286e-38
0.6443876028 0.3778714836 0.01533792354 1.871571286e-38
0.6442751288 0.3750173151 0.01533524599 1.871571286e-38
0.6441625357 0.372164011 0.01533256564 1.871571286e-38
0.6440500617 0.3693118095 0.01532988995 1.871571286e-38
0.6439375877 0.3664605021 0.01532721147 1.871571286e-38
0.6438251734 0.3636102676 0.01532453671 1.871571286e-38
0.6437128186 0.3607609868 0.01532186195 1.871571286e-38
0.6436005235 0.3579127491 0.01531918813 1.871571286e-38
0.6434881687 0.355065465 0.01531651523 1.871571286e-38
0.6433758736 0.3522191346 0.01531384233 1.871571286e-38
0.6432636976 0.349373877 0.0153111713 1.871571286e-38
0.6431515217 0.3465295732 0.0153085012 1.871571286e-38
0.6430394053 0.3436862826 0.01530583296 1.871571286e-38
0.642927289 0.3408439457 0.01530316379 1.871571286e-38
0.6428152323 0.3380026519 0.01530049741 1.871571286e-38
0.6427031755 0.335162282 0.0152978301 1.871571286e-38
0.6425911784 0.3323229551 0.01529516466 1.871571286e-38
0.6424793005 0.3294846117 0.01529250108 1.871571286e-38
0.642367363 0.3266472518 0.01528983656 1.871571286e-38
0.6422554851 0.3238108456 0.01528717391 1.871571286e-38
0.6421436667 0.3209754825 0.01528451219 1.871571286e-38
0.6420318484 0.3181410432 0.0152818514 1.871571286e-38
0.6419201493 0.3153076768 0.01527919155 1.871571286e-38
0.6418083906 0.3124752343 0.01527653262 1.871571286e-38
0.6416967511 0.309643805 0.01527387463 1.871571286e-38
0.6415851116 0.3068133295 0.01527121756 1.871571286e-38
0.6414735317 0.3039838374 0.01526856143 1.871571286e-38
0.6413618922 0.3011553288 0.0152659053 1.871571286e-38
0.6412504315 0.2983278334 0.01526325196 1.871571286e-38
0.6411389112 0.2955013216 0.01526059769 1.871571286e-38
0.6410275102 0.2926757932 0.01525794622 1.871571286e-38
0.6409160495 0.2898511887 0.01525529288 1.871571286e-38
0.6408047676 0.2870276272 0.01525264326 1.871571286e-38
0.6406934261 0.2842050195 0.01524999272 1.871571286e-38
0.6405820847 0.2813833952 0.01524734311 1.871571286e-38
0.6404708624 0.2785627842 0.01524469629 1.871571286e-38
0.6403596997 0.2757431269 0.01524204947 1.871571286e-38
0.6402485371 0.272924453 0.01523940451 1.871571286e-38
0.6401373744 0.2701067328 0.0152367577 1.871571286e-38
0.6400262713 0.2672900259 0.01523411367 1.871571286e-38
0.6399152279 0.2644742727 0.01523147058 1.871571286e-38
0.639804244 0.261659503 0.01522882842 1.871571286e-38
0.6396932006 0.2588457167 0.01522618625 1.871571286e-38
0.6395822763 0.2560329139 0.01522354502 1.871571286e-38
0.6394714117 0.2532210946 0.01522090659 1.871571286e-38
0.6393605471 0.250410229 0.01521826722 1.871571286e-38
0.639249742 0.2476003319 0.01521562971 1.871571286e-38
0.639138937 0.2447914183 0.01521299221 1.871571286e-38
0.639028132 0.2419834435 0.01521035563 1.871571286e-38
0.6389174461 0.239176482 0.01520772092 1.871571286e-38
0.6388067603 0.2363704741 0.01520508621 1.871571286e-38
0.6386961937 0.2335654646 0.01520245429 1.871571286e-38
0.6385855675 0.2307614088 0.01519982144 1.871571286e-38
0.6384750009 0.2279583365 0.01519718952 1.871571286e-38
0.6383644938 0.2251562178 0.01519455854 1.871571286e-38
0.6382540464 0.2223550975 0.01519193035 1.871571286e-38
0.638143599 0.219554916 0.01518930122 1.871571286e-38
0.6380331516 0.2167557031 0.01518667303 1.871571286e-38
0.6379228234 0.2139574736 0.0151840467 1.871571286e-38
0.6378124952 0.2111601979 0.01518142037 1.871571286e-38
0.6377022266 0.2083639055 0.01517879497 1.871571286e-38
0.637591958 0.2055685818 0.01517617144 1.871571286e-38
0.6374817491 0.2027742118 0.01517354883 1.871571286e-38
0.6373715401 0.1999808103 0.0151709253 1.871571286e-38
0.6372613907 0.1971883476 0.01516830362 1.871571286e-38
0.6371513009 0.1943968832 0.01516568288 1.871571286e-38
0.6370412111 0.1916063726 0.01516306307 1.871571286e-38
0.6369313002 0.1888168454 0.01516044606 1.871571286e-38
0.63682127 0.186028257 0.01515782718 1.871571286e-38
0.636711359 0.183240667 0.01515521109 1.871571286e-38
0.6366014481 0.1804540008 0.01515259407 1.871571286e-38
0.6364915967 0.1776683182 0.01514997985 1.871571286e-38
0.6363817453 0.1748835742 0.0151473647 1.871571286e-38
0.636271894 0.1720997989 0.01514475048 1.871571286e-38
0.6361622214 0.1693170071 0.01514213998 1.871571286e-38
0.6360524297 0.166535154 0.01513952762 1.871571286e-38
0.6359428167 0.1637542695 0.01513691805 1.871571286e-38
0.6358331442 0.1609743387 0.01513430662 1.871571286e-38
0.6357235909 0.1581953764 0.01513169892 1.871571286e-38
0.6356139779 0.1554173529 0.01512909029 1.871571286e-38
0.635504365 0.1526402831 0.01512648258 1.871571286e-38
0.6353949904 0.1498641819 0.01512387767 1.871571286e-38
0.6352854967 0.1470890343 0.01512127183 1.871571286e-38
0.6351761222 0.1443148553 0.01511866786 1.871571286e-38
0.6350666881 0.1415416151 0.01511606388 1.871571286e-38
0.6349573731 0.1387693435 0.01511346176 1.871571286e-38
0.6348480582 0.1359980255 0.01511086058 1.871571286e-38
0.6347388625 0.1332276613 0.01510826033 1.871571286e-38
0.6346295476 0.1304582357 0.01510565914 1.871571286e-38
0.6345204115 0.1276897788 0.01510306075 1.871571286e-38
0.6344112158 0.1249222606 0.01510046236 1.871571286e-38
0.6343021393 0.1221557111 0.01509786583 1.871571286e-38
0.6341930628 0.1193901077 0.01509527024 1.871571286e-38
0.6340839863 0.1166254357 0.01509267371 1.871571286e-38
0.633975029 0.1138617396 0.01509007998 1.871571286e-38
0.6338660717 0.1110989824 0.01508748624 1.871571286e-38
0.6337570548 0.1083371714 0.01508489251 1.871571286e-38
0.6336482167 0.1055763215 0.01508230157 1.871571286e-38
0.633539319 0.1028164104 0.0150797097 1.871571286e-38
0.6334305406 0.1000574529 0.01507712062 1.871571286e-38
0.6333218217 0.09729943424 0.01507453155 1.871571286e-38
0.6332131028 0.0945423767 0.01507194433 1.871571286e-38
0.6331043243 0.09178625047 0.01506935526 1.871571286e-38
0.6329957247 0.08903109282 0.01506677084 1.871571286e-38
0.6328870058 0.08627685159 0.01506418269 1.871571286e-38
0.6327784657 0.08352357149 0.01506159827 1.871571286e-38
0.6326699257 0.08077124506 0.01505901571 1.871571286e-38
0.6325613856 0.07801984251 0.01505643129 1.871571286e-38
0.6324529052 0.07526940107 0.0150538506 1.871571286e-38
0.6323444843 0.07251988351 0.01505126897 1.871571286e-38
0.6322361231 0.06977132708 0.01504868921 1.871571286e-38
0.6321277022 0.06702370197 0.01504610945 1.871571286e-38
0.632019341 0.06427702308 0.01504352968 1.871571286e-38
0.631911099 0.06153128669 0.01504095364 1.871571286e-38
0.6318027973 0.05878648534 0.01503837574 1.880790849e-38
0.6316946149 0.0560426265 0.01503580064 1.880790849e-38
0.6315864325 0.05329971015 0.01503322553 1.880790849e-38
0.6314783096 0.05055773631 0.01503065228 1.880790849e-38
0.6313701868 0.04781669378 0.01502807811 1.880790849e-38
0.6312621236 0.04507659376 0.01502550673 1.880790849e-38
0.6311540604 0.0423374325 0.01502293441 1.880790849e-38
0.6310460567 0.03959920257 0.01502036303 1.880790849e-38
0.6309381127 0.03686191887 0.01501779445 1.880790849e-38
0.6308301687 0.03412556276 0.01501522493 1.880790849e-38
0.6307223439 0.03139014915 0.0150126582 1.880790849e-38
0.6306143999 0.028655665 0.01501008961 1.880790849e-38
0.6305066943 0.02592212148 0.01500752568 1.880790849e-38
0.6303988099 0.02318950742 0.01500495803 1.880790849e-38
0.6302911043 0.02045783028 0.0150023941 1.880790849e-38
0.6301834583 0.01772709005 0.01499983203 1.880790849e-38
0.6300757527 0.01499727741 0.01499726716 1.880790849e-38
0.6299681664 0.01226839982 0.01499470696 1.880790849e-38
0.6298605204 0.009540453553 0.01499214582 1.880790849e-38
0.6297529936 0.006813439541 0.01498958655 1.880790849e-38
0.6296454072 0.004087355454 0.01498702541 1.880790849e-38
0.6295380592 0.001362203271 0.01498446893 1.880790849e-38
0.6294304729 -0.001362019219 0.01498187706 1.880790849e-38
0.6293230653 -0.004085311666 0.01497931965 1.880790849e-38
0.6292157173 -0.006807675119 0.0149767641 1.880790849e-38
0.6291083097 -0.009529109113 0.01497420855 1.880790849e-38
0.6290010214 -0.01224961504 0.01497165486 1.880790849e-38
0.6288937926 -0.01496919338 0.01496910211 1.880790849e-38
0.6287865639 -0.01768784598 0.01496655028 1.880790849e-38
0.6286793947 -0.02040554397 0.01496406738 1.880790849e-38
0.628572166 -0.02312233858 0.01496151555 1.880790849e-38
0.628465116 -0.02583821118 0.01495896652 1.880790849e-38
0.6283580065 -0.02855315618 0.01495641656 1.880790849e-38
0.6282509565 -0.03126717731 0.01495387033 1.880790849e-38
0.6281439662 -0.03398027271 0.01495132316 1.880790849e-38
0.6280370355 -0.03669244796 0.01494877785 1.880790849e-38
0.6279301047 -0.03940369934 0.01494623255 1.880790849e-38
0.6278232336 -0.04211402684 0.01494368818 1.880790849e-38
0.6277163625 -0.04482342675 0.01494114473 1.880790849e-38
0.6276094913 -0.04753190652 0.01493860129 1.880790849e-38
0.6275027394 -0.05023946613 0.01493606064 1.880790849e-38
0.6273959279 -0.0529461056 0.01493351813 1.880790849e-38
0.6272892952 -0.05565182492 0.01493097935 1.880790849e-38
0.6271826029 -0.05835662037 0.01492843963 1.880790849e-38
0.6270759702 -0.0610604994 0.01492590271 1.880790849e-38
0.6269693375 -0.06376345456 0.01492336299 1.880790849e-38
0.6268627048 -0.06646548212 0.01492082607 1.880790849e-38
0.6267562509 -0.06916661561 0.01491829101 1.880790849e-38
0.6266496778 -0.07186681032 0.01491575502 1.880790849e-38
0.6265432835 -0.07456610352 0.01491322275 1.880790849e-38
0.6264368892 -0.07726447284 0.01491068956 1.880790849e-38
0.6263304353 -0.07996192575 0.01490815636 1.880790849e-38
0.6262241006 -0.08265845478 0.01490562502 1.880790849e-38
0.6261178255 -0.08535408229 0.01490309555 1.880790849e-38
0.6260115504 -0.08804878592 0.01490056608 1.880790849e-38
0.6259052753 -0.09074257314 0.01489803661 1.880790849e-38
0.6257990599 -0.09343544394 0.01489550807 1.880790849e-38
0.625692904 -0.09612741321 0.01489298139 1.880790849e-38
0.6255867481 -0.09881845862 0.01489045471 1.880790849e-38
0.6254806519 -0.101508595 0.01488792989 1.880790849e-38
0.6253746152 -0.10419783 0.01488540601 1.880790849e-38
0.6252685785 -0.1068861336 0.01488288119 1.890010412e-38
0.6251625419 -0.1095735282 0.01488035731 1.890010412e-38
0.6250565648 -0.1122600213 0.01487783529 1.890010412e-38
0.624950707 -0.1149456054 0.01487531513 1.890010412e-38
0.6248447895 -0.1176302731 0.01487279497 1.890010412e-38
0.6247389317 -0.1203140244 0.01487027481 1.890010412e-38
0.624633193 -0.1229968816 0.01486775745 1.890010412e-38
0.6245273352 -0.1256788075 0.01486523822 1.890010412e-38
0.6244216561 -0.1283598542 0.01486272272 1.890010412e-38
0.6243159175 -0.1310399771 0.01486020535 1.890010412e-38
0.6242101789 -0.133719191 0.01485768985 1.890010412e-38
0.624104619 -0.1363975257 0.01485517714 1.890010412e-38
0.6239989996 -0.1390749216 0.0148526635 1.890010412e-38
0.6238934398 -0.1417514235 0.01485015079 1.890010412e-38
0.6237878799 -0.1444270015 0.01484763809 1.890010412e-38
0.6236824989 -0.1471017003 0.01484512817 1.890010412e-38
0.6235769987 -0.1497754753 0.01484261733 1.890010412e-38
0.6234715581 -0.1524483562 0.01484010834 1.890010412e-38
0.6233661771 -0.155120343 0.01483760029 1.890010412e-38
0.6232607961 -0.1577914059 0.01483509224 1.890010412e-38
0.6231555343 -0.1604615897 0.01483258605 1.890010412e-38
0.6230502129 -0.1631308496 0.01483007986 1.890010412e-38
0.6229450107 -0.1657992154 0.0148275746 1.890010412e-38
0.6228397489 -0.1684666723 0.01482507028 1.890010412e-38
0.6227346659 -0.1711332649 0.01482256874 1.890010412e-38
0.6226295233 -0.1737989187 0.01482006535 1.890010412e-38
0.6225243807 -0.1764636934 0.01481756382 1.890010412e-38
0.6224193573 -0.179127574 0.01481506322 1.890010412e-38
0.6223142743 -0.1817905158 0.01481256168 1.890010412e-38
0.6222093105 -0.1844525933 0.01481006294 1.890010412e-38
0.6221043468 -0.187113747 0.01480756514 1.890010412e-38
0.6219995022 -0.1897740513 0.01480506919 1.890010412e-38
0.6218945384 -0.1924334019 0.01480257045 1.890010412e-38
0.6217896938 -0.1950918734 0.01480007544 1.890010412e-38
0.6216849089 -0.1977494806 0.01479758136 1.890010412e-38
0.6215800643 -0.2004061341 0.01479508635 1.890010412e-38
0.6214753389 -0.2030619383 0.01479259413 1.890010412e-38
0.6213706732 -0.2057168335 0.01479010191 1.890010412e-38
0.6212660074 -0.2083708495 0.01478761062 1.890010412e-38
0.6211612821 -0.2110239267 0.0147851184 1.890010412e-38
0.6210567355 -0.2136761546 0.01478262898 1.890010412e-38
0.6209521294 -0.2163274735 0.01478014048 1.890010412e-38
0.6208475828 -0.2189778835 0.01477765106 1.890010412e-38
0.6207430959 -0.221627444 0.01477516536 1.890010412e-38
0.6206386089 -0.2242760658 0.01477267779 1.890010412e-38
0.6205342412 -0.2269238383 0.01477019303 1.890010412e-38
0.6204298139 -0.2295706719 0.01476770733 1.890010412e-38
0.6203254461 -0.232216686 0.01476522442 1.890010412e-38
0.620221138 -0.2348617613 0.01476274151 1.890010412e-38
0.6201168299 -0.2375059426 0.01476025768 1.890010412e-38
0.6200125813 -0.2401492447 0.01475777663 1.890010412e-38
0.6199083328 -0.2427916527 0.01475529559 1.890010412e-38
0.6198042035 -0.2454331964 0.01475281734 1.890010412e-38
0.6197000742 -0.2480738312 0.01475033723 1.890010412e-38
0.6195960045 -0.2507135868 0.01474786084 1.890010412e-38
0.6194919348 -0.2533524632 0.01474538445 1.890010412e-38
0.6193878055 -0.2559904158 0.01474290621 1.890010412e-38
0.6192839146 -0.2586275339 0.01474043261 1.890010412e-38
0.6191798449 -0.2612637281 0.01473795529 1.890010412e-38
0.619075954 -0.2638990581 0.0147354817 1.890010412e-38
0.6189720631 -0.266533494 0.01473300997 1.890010412e-38
0.6188681722 -0.2691670358 0.01473053638 1.890010412e-38
0.6187643409 -0.2717997134 0.01472806558 1.890010412e-38
0.6186605096 -0.2744314969 0.01472559385 1.890010412e-38
0.6185567379 -0.2770623863 0.01472312305 1.890010412e-38
0.6184530854 -0.2796924114 0.01472065598 1.890010412e-38
0.6183493733 -0.2823215723 0.01471818704 1.890010412e-38
0.6182456613 -0.2849498093 0.01471571997 1.890010412e-38
0.6181420088 -0.2875771821 0.01471325289 1.890010412e-38
0.6180384755 -0.2902036905 0.01471078862 1.890010412e-38
0.6179348826 -0.2928293049 0.01470832247 1.890010412e-38
0.617831409 -0.2954540253 0.01470585819 1.890010412e-38
0.6177279353 -0.2980779111 0.01470339578 1.890010412e-38
0.6176244617 -0.3007008433 0.01470093336 1.890010412e-38
0.6175210476 -0.3033229709 0.01469847187 1.890010412e-38
0.6174176931 -0.3059441745 0.01469601132 1.890010412e-38
0.6173143387 -0.3085645437 0.0146935517 1.890010412e-38
0.6172109842 -0.311183989 0.01469109207 1.890010412e-38
0.6171076894 -0.3138025701 0.01468863245 1.890010412e-38
0.6170044541 -0.3164203167 0.01468617655 1.890010412e-38
0.6169012189 -0.3190371096 0.01468371786 1.890010412e-38
0.6167981029 -0.3216530979 0.01468126383 1.890010412e-38
0.6166949272 -0.3242681921 0.01467880886 1.890010412e-38
0.6165918708 -0.326882422 0.01467635483 1.890010412e-38
0.6164887547 -0.329495728 0.01467390079 1.890010412e-38
0.6163856983 -0.3321081698 0.01467144676 1.890010412e-38
0.6162827611 -0.3347197771 0.01466899738 1.890010412e-38
0.6161797047 -0.3373305202 0.0146665452 1.890010412e-38
0.6160768867 -0.3399403691 0.01466409676 1.890010412e-38
0.6159739494 -0.3425493538 0.01466164645 1.890010412e-38
0.6158711314 -0.3451574743 0.01465919986 1.890010412e-38
0.6157682538 -0.3477647007 0.01465675142 1.890010412e-38
0.6156653762 -0.3503710032 0.01465430204 1.890010412e-38
0.6155626774 -0.3529765606 0.01465185825 1.890010412e-38
0.615459919 -0.3555811048 0.01464941166 1.890010412e-38
0.6153572798 -0.3581849337 0.0146469688 1.890010412e-38
0.615254581 -0.3607877791 0.01464452501 1.880790849e-38
0.6151520014 -0.3633898199 0.01464208309 1.880790849e-38
0.6150493622 -0.3659909368 0.01463964023 1.880790849e-38
0.6149467826 -0.3685912192 0.0146371983 1.880790849e-38
0.6148443222 -0.3711906672 0.01463475917 1.880790849e-38
0.6147417426 -0.3737891614 0.01463231817 1.880790849e-38
0.6146393418 -0.3763868809 0.0146298809 1.880790849e-38
0.6145369411 -0.3789836764 0.0146274427 1.880790849e-38
0.6144345999 -0.3815796673 0.01462500636 1.880790849e-38
0.6143321991 -0.3841747046 0.01462256908 1.880790849e-38
0.6142297983 -0.3867689371 0.01462013274 1.880790849e-38
0.614127636 -0.3893623054 0.01461770013 1.880790849e-38
0.6140253544 -0.3919548094 0.01461526565 1.880790849e-38
0.613923192 -0.3945464492 0.01461283397 1.880790849e-38
0.6138209701 -0.3971372247 0.01461040135 1.880790849e-38
0.6137188077 -0.3997271061 0.01460796967 1.880790849e-38
0.6136166453 -0.402316153 0.01460553799 1.880790849e-38
0.6135146022 -0.4049043059 0.01460310817 1.880790849e-38
0.613412559 -0.4074916542 0.01460068021 1.880790849e-38
0.6133105159 -0.4100780785 0.01459825132 1.880790849e-38
0.6132085919 -0.412663728 0.01459582523 1.880790849e-38
0.6131066084 -0.4152484536 0.0145933982 1.880790849e-38
0.6130047441 -0.4178323448 0.01459097303 1.880790849e-38
0.6129028797 -0.4204153419 0.01458854787 1.880790849e-38
0.6128009558 -0.4229975045 0.01458612271 1.880790849e-38
0.6498914361 0.448599875 0.01265638787 1.862351723e-38
0.649776876 0.4457087517 0.01265415736 1.862351723e-38
0.6496624351 0.4428187311 0.01265192963 1.862351723e-38
0.6495479941 0.4399296343 0.01264970005 1.871571286e-38
0.6494336128 0.4370416701 0.01264747325 1.871571286e-38
0.6493192911 0.4341546297 0.01264524646 1.871571286e-38
0.649205029 0.4312686622 0.0126430206 1.871571286e-38
0.6490907073 0.4283836484 0.01264079567 1.871571286e-38
0.6489764452 0.4254996777 0.01263856981 1.871571286e-38
0.6488623619 0.4226167798 0.01263634767 1.871571286e-38
0.6487481594 0.4197348058 0.01263412368 1.871571286e-38
0.6486341357 0.4168539345 0.0126319034 1.871571286e-38
0.6485199928 0.4139739871 0.01262968034 1.871571286e-38
0.6484060287 0.4110951126 0.01262746099 1.871571286e-38
0.6482920051 0.4082172513 0.01262524072 1.871571286e-38
0.6481781006 0.4053403735 0.01262302231 1.871571286e-38
0.6480641961 0.4024644792 0.0126208039 1.871571286e-38
0.6479502916 0.399589628 0.01261858549 1.871571286e-38
0.6478365064 0.3967158198 0.0126163708 1.871571286e-38
0.6477227211 0.3938429952 0.01261415333 1.871571286e-38
0.6476089954 0.3909711838 0.01261193957 1.871571286e-38
0.6474952698 0.3881003559 0.01260972396 1.871571286e-38
0.6473816633 0.3852305412 0.01260751113 1.871571286e-38
0.6472679973 0.3823617697 0.01260529831 1.871571286e-38
0.6471543908 0.3794939518 0.01260308549 1.871571286e-38
0.6470409036 0.3766272068 0.01260087546 1.871571286e-38
0.6469273567 0.3737613857 0.0125986645 1.871571286e-38
0.6468139291 0.3708966374 0.0125964554 1.871571286e-38
0.6467005014 0.3680328727 0.01259424631 1.871571286e-38
0.6465871334 0.3651701212 0.01259203814 1.871571286e-38
0.6464737654 0.3623083234 0.01258983091 1.871571286e-38
0.6463604569 0.3594475985 0.0125876246 1.871571286e-38
0.6462472081 0.356587857 0.01258541923 1.871571286e-38
0.6461339593 0.3537290394 0.01258321293 1.871571286e-38
0.6460207701 0.3508713245 0.01258100942 1.871571286e-38
0.6459075809 0.3480145335 0.01257880498 1.871571286e-38
0.6457945704 0.3451588452 0.01257660426 1.871571286e-38
0.6456815004 0.3423040807 0.01257440168 1.871571286e-38
0.64556849 0.3394503593 0.01257220097 1.871571286e-38
0.6454554796 0.3365975618 0.01257000025 1.871571286e-38
0.6453425288 0.3337458372 0.01256780047 1.871571286e-38
0.645229578 0.3308950663 0.01256560162 1.871571286e-38
0.6451167464 0.3280453384 0.0125634037 1.871571286e-38
0.6450039148 0.3251965642 0.01256120671 1.871571286e-38
0.6448911428 0.3223488033 0.01255900972 1.871571286e-38
0.6447783709 0.3195020258 0.01255681366 1.871571286e-38
0.6446656585 0.3166562617 0.01255461946 1.871571286e-38
0.6445530057 0.313811481 0.01255242527 1.871571286e-38
0.6444404125 0.3109677136 0.012550232 1.871571286e-38
0.6443277597 0.3081248701 0.0125480378 1.871571286e-38
0.6442152262 0.3052830994 0.01254584733 1.871571286e-38
0.6441027522 0.3024423122 0.01254365593 1.871571286e-38
0.6439902782 0.2996024787 0.01254146639 1.871571286e-38
0.6438778043 0.2967636585 0.01253927499 1.871571286e-38
0.6437654495 0.2939258516 0.01253708825 1.871571286e-38
0.6436530948 0.2910889983 0.01253489964 1.871571286e-38
0.6435406804 0.2882530987 0.01253271103 1.871571286e-38
0.6434284449 0.285418272 0.01253052521 1.871571286e-38
0.6433162093 0.2825843692 0.01252833847 1.871571286e-38
0.6432040334 0.2797515094 0.01252615452 1.871571286e-38
0.6430918574 0.2769196033 0.01252396964 1.871571286e-38
0.6429798007 0.2740887403 0.01252178755 1.871571286e-38
0.6428676844 0.2712588012 0.0125196036 1.871571286e-38
0.6427556872 0.2684298754 0.01251742337 1.871571286e-38
0.6426436305 0.265601933 0.01251524128 1.871571286e-38
0.6425316334 0.2627749443 0.01251306012 1.871571286e-38
0.6424197555 0.2599489689 0.01251088083 1.871571286e-38
0.6423078179 0.2571239769 0.0125087006 1.871571286e-38
0.6421960592 0.2542999983 0.0125065241 1.871571286e-38
0.6420841813 0.2514769435 0.01250434574 1.871571286e-38
0.6419724822 0.2486549318 0.01250216924 1.871571286e-38
0.6418607235 0.2458338737 0.01249999367 1.871571286e-38
0.6417490244 0.2430137843 0.0124978181 1.871571286e-38
0.6416373253 0.2401946634 0.01249564346 1.871571286e-38
0.6415256858 0.237376526 0.01249346882 1.871571286e-38
0.6414141655 0.2345594168 0.01249129698 1.871571286e-38
0.6413026452 0.2317432612 0.01248912513 1.871571286e-38
0.6411911845 0.228928104 0.01248695422 1.871571286e-38
0.6410796642 0.2261138856 0.01248478238 1.871571286e-38
0.6409682631 0.2233006656 0.01248261333 1.871571286e-38
0.6408568621 0.2204884291 0.01248044427 1.871571286e-38
0.6407455206 0.2176771611 0.01247827616 1.871571286e-38
0.6406342983 0.2148668915 0.01247610897 1.871571286e-38
0.6405229568 0.2120575607 0.01247394085 1.871571286e-38
0.6404117346 0.2092492282 0.01247177552 1.871571286e-38
0.6403005719 0.2064418644 0.0124696102 1.871571286e-38
0.6401894093 0.203635484 0.01246744581 1.871571286e-38
0.6400783062 0.2008300573 0.01246528141 1.871571286e-38
0.6399672031 0.198025614 0.01246311795 1.871571286e-38
0.6398562193 0.1952221543 0.01246095635 1.871571286e-38
0.6397451162 0.1924196333 0.01245879382 1.871571286e-38
0.6396342516 0.1896181405 0.01245663408 1.871571286e-38
0.6395232677 0.1868175715 0.01245447248 1.871571286e-38
0.6394124627 0.1840180159 0.01245231461 1.871571286e-38
0.6393015981 0.181219399 0.0124501558 1.871571286e-38
0.6391908526 0.1784217805 0.01244799886 1.871571286e-38
0.6390800476 0.1756251007 0.01244584098 1.871571286e-38
0.6389692426 0.1728293896 0.01244368311 1.871571286e-38
0.6388586164 0.1700346768 0.01244152896 1.871571286e-38
0.6387479901 0.1672409028 0.01243937388 1.871571286e-38
0.6386373639 0.1644481122 0.01243721973 1.871571286e-38
0.6385267377 0.1616562754 0.01243506558 1.871571286e-38
0.6384162903 0.1588654369 0.01243291423 1.871571286e-38
0.6383057237 0.1560755223 0.01243076194 1.871571286e-38
0.6381952763 0.1532865912 0.01242860965 1.871571286e-38
0.6380848885 0.1504986286 0.01242646109 1.871571286e-38
0.6379745007 0.1477116197 0.01242431067 1.871571286e-38
0.6378641725 0.1449255943 0.01242216211 1.871571286e-38
0.6377537847 0.1421405077 0.01242001262 1.871571286e-38
0.6376435757 0.1393564045 0.01241786685 1.871571286e-38
0.6375333667 0.13657327 0.01241572015 1.871571286e-38
0.6374232173 0.1337910891 0.01241357531 1.871571286e-38
0.6373130083 0.1310098618 0.01241142862 1.871571286e-38
0.6372028589 0.1282295883 0.01240928378 1.871571286e-38
0.6370928288 0.1254502982 0.01240714081 1.871571286e-38
0.636982739 0.1226719543 0.0124049969 1.871571286e-38
0.636872828 0.1198945791 0.01240285579 1.871571286e-38
0.6367627978 0.1171181425 0.01240071282 1.871571286e-38
0.6366528869 0.1143426821 0.01239857357 1.871571286e-38
0.6365430355 0.1115681753 0.01239643339 1.871571286e-38
0.6364331245 0.1087946221 0.01239429321 1.871571286e-38
0.6363233924 0.106022045 0.01239215583 1.871571286e-38
0.636213541 0.1032503992 0.01239001658 1.871571286e-38
0.6361038685 0.1004797295 0.01238788106 1.871571286e-38
0.6359940767 0.09770999104 0.01238574367 1.871571286e-38
0.6358844638 0.09494122863 0.01238360815 1.871571286e-38
0.6357748508 0.09217341989 0.01238147356 1.871571286e-38
0.6356652975 0.08940656483 0.0123793399 1.871571286e-38
0.6355557442 0.08664065599 0.01237720624 1.871571286e-38
0.6354461908 0.08387570083 0.01237507258 1.871571286e-38
0.6353367567 0.08111170679 0.01237294171 1.871571286e-38
0.6352273226 0.07834865898 0.01237081084 1.871571286e-38
0.6351179481 0.07558657229 0.01236868091 1.871571286e-38
0.6350085139 0.07282540947 0.01236655004 1.871571286e-38
0.6348993182 0.07006522268 0.0123644229 1.871571286e-38
0.6347899437 0.06730597466 0.01236229297 1.871571286e-38
0.6346806884 0.06454768032 0.01236016583 1.871571286e-38
0.6345715523 0.06179034337 0.01235803962 1.871571286e-38
0.634462297 0.05903394148 0.01235591248 1.880790849e-38
0.6343532205 0.05627849326 0.0123537872 1.880790849e-38
0.6342440844 0.05352399498 0.01235166285 1.880790849e-38
0.6341350675 0.05077044293 0.01234953944 1.880790849e-38
0.6340260506 0.04801783338 0.01234741602 1.880790849e-38
0.6339170337 0.04526617378 0.01234529354 1.880790849e-38
0.6338080764 0.0425154604 0.01234317198 1.880790849e-38
0.6336991787 0.03976569325 0.01234105136 1.880790849e-38
0.6335903406 0.03701687232 0.01233893167 1.880790849e-38
0.6334815025 0.03426899016 0.01233681198 1.880790849e-38
0.6333727241 0.03152205423 0.01233469322 1.880790849e-38
0.6332639456 0.02877606265 0.0123325754 1.880790849e-38
0.6331552863 0.02603101358 0.0123304585 1.880790849e-38
0.6330465674 0.02328690328 0.01232834067 1.880790849e-38
0.6329378486 0.02054373734 0.01232622378 1.880790849e-38
0.6328293085 0.01780151762 0.0123241106 1.880790849e-38
0.6327207088 0.01506023295 0.01232199557 1.880790849e-38
0.6326121688 0.01231989171 0.01231988147 1.880790849e-38
0.6325036883 0.009580489248 0.0123177683 1.880790849e-38
0.6323952675 0.006842026487 0.01231565792 1.880790849e-38
0.632286787 0.004104502033 0.01231354475 1.880790849e-38
0.6321784854 0.001367916586 0.0123114353 1.880790849e-38
0.6320700049 -0.00136773102 0.01230929047 1.880790849e-38
0.6319617033 -0.004102440551 0.01230718102 1.880790849e-38
0.6318534613 -0.006836214103 0.01230507344 1.880790849e-38
0.6317452192 -0.009569049813 0.01230296493 1.880790849e-38
0.6316370368 -0.01230095048 0.01230085827 1.880790849e-38
0.6315288544 -0.01503191423 0.01229875162 1.880790849e-38
0.6314207315 -0.01776191778 0.01229671482 1.880790849e-38
0.6313126087 -0.02049101144 0.0122946091 1.880790849e-38
0.6312045455 -0.02321917191 0.01229250431 1.880790849e-38
0.6310966015 -0.0259463992 0.01229040138 1.880790849e-38
0.6309885979 -0.0286726933 0.01228829846 1.880790849e-38
0.6308806539 -0.03139805421 0.01228619646 1.880790849e-38
0.6307727695 -0.03412248194 0.0122840954 1.880790849e-38
0.630664885 -0.03684597835 0.01228199434 1.880790849e-38
0.6305570602 -0.03956854343 0.0122798942 1.880790849e-38
0.6304492354 -0.0422901772 0.012277795 1.880790849e-38
0.6303415298 -0.04501088336 0.01227569766 1.880790849e-38
0.6302337646 -0.04773065075 0.01227359846 1.880790849e-38
0.6301260591 -0.050449498 0.01227150112 1.880790849e-38
0.6300184131 -0.05316741392 0.01226940472 1.880790849e-38
0.6299108267 -0.05588440225 0.01226730924 1.880790849e-38
0.6298032403 -0.05860045925 0.0122652147 1.880790849e-38
0.6296957731 -0.0613155961 0.01226312108 1.880790849e-38
0.6295882463 -0.06402979791 0.01226102747 1.880790849e-38
0.6294807196 -0.0667430684 0.01225893386 1.880790849e-38
0.629373312 -0.06945542991 0.01225684211 1.880790849e-38
0.6292659044 -0.07216685265 0.01225475036 1.880790849e-38
0.6291586161 -0.07487735897 0.01225266047 1.880790849e-38
0.6290512681 -0.07758693397 0.01225056965 1.880790849e-38
0.6289439797 -0.0802955851 0.01224848069 1.880790849e-38
0.628836751 -0.08300331235 0.01224639174 1.880790849e-38
0.6287295818 -0.08571013063 0.01224430557 1.880790849e-38
0.6286224127 -0.08841600269 0.01224221848 1.880790849e-38
0.6285151839 -0.09112095833 0.01224013045 1.880790849e-38
0.6284081936 -0.09382500499 0.01223804615 1.880790849e-38
0.628301084 -0.09652811289 0.01223595999 1.880790849e-38
0.6281941533 -0.09923031926 0.01223387755 1.880790849e-38
0.6280870438 -0.1019315869 0.01223179232 1.880790849e-38
0.6279801726 -0.1046319604 0.01222971082 1.880790849e-38
0.6278732419 -0.1073313951 0.01222762838 1.880790849e-38
0.6277663112 -0.1100298986 0.01222554594 1.880790849e-38
0.6276594996 -0.1127275079 0.0122234663 1.890010412e-38
0.6275526881 -0.115424186 0.01222138572 1.890010412e-38
0.6274459958 -0.1181199551 0.01221930701 1.890010412e-38
0.6273392439 -0.1208148003 0.0122172283 1.890010412e-38
0.6272325516 -0.123508729 0.01221515145 1.890010412e-38
0.6271258593 -0.1262017339 0.01221307367 1.890010412e-38
0.6270192862 -0.1288938373 0.01221099775 1.890010412e-38
0.6269126534 -0.1315850317 0.01220892183 1.890010412e-38
0.6268060803 -0.1342752874 0.01220684499 1.890010412e-38
0.6266995668 -0.136964649 0.01220477186 1.890010412e-38
0.6265931129 -0.1396530867 0.01220269781 1.890010412e-38
0.6264867187 -0.1423406154 0.01220062561 1.890010412e-38
0.6263802648 -0.1450272202 0.01219855342 1.890010412e-38
0.6262739301 -0.147712931 0.01219648216 1.890010412e-38
0.6261675954 -0.150397718 0.0121944109 1.890010412e-38
0.6260612607 -0.153081581 0.01219233964 1.890010412e-38
0.6259550452 -0.15576455 0.01219027117 1.890010412e-38
0.6258487701 -0.1584465951 0.01218820177 1.890010412e-38
0.6257426143 -0.1611277461 0.01218613423 1.890010412e-38
0.6256364584 -0.1638079882 0.01218406763 1.890010412e-38
0.6255303621 -0.1664873213 0.01218200102 1.890010412e-38
0.6254242063 -0.1691657156 0.01217993442 1.890010412e-38
0.6253182292 -0.1718432605 0.01217787061 1.890010412e-38
0.6252121925 -0.1745198369 0.01217580494 1.890010412e-38
0.6251062155 -0.177195549 0.01217374112 1.890010412e-38
0.6250002384 -0.1798703372 0.01217167825 1.890010412e-38
0.6248943806 -0.1825442165 0.01216961537 1.890010412e-38
0.6247885823 -0.1852172017 0.01216755528 1.890010412e-38
0.6246826649 -0.187889263 0.0121654924 1.890010412e-38
0.6245769262 -0.1905604303 0.01216343325 1.890010412e-38
0.624471128 -0.1932306886 0.01216137409 1.890010412e-38
0.6243653893 -0.1959000379 0.01215931401 1.890010412e-38
0.6242597103 -0.1985684782 0.01215725578 1.890010412e-38
0.6241540313 -0.2012360245 0.01215519756 1.890010412e-38
0.6240484715 -0.2039026767 0.01215314213 1.890010412e-38
0.623942852 -0.206568405 0.01215108484 1.890010412e-38
0.6238373518 -0.2092332691 0.01214903034 1.890010412e-38
0.6237318516 -0.2118972093 0.01214697585 1.890010412e-38
0.623626411 -0.2145602703 0.01214492228 1.890010412e-38
0.6235209107 -0.2172223777 0.01214286778 1.890010412e-38
0.6234154701 -0.2198836058 0.01214081515 1.890010412e-38
0.6233102083 -0.2225439698 0.01213876437 1.890010412e-38
0.6232048273 -0.2252034098 0.01213671267 1.890010412e-38
0.6230995059 -0.2278619409 0.0121346619 1.890010412e-38
0.6229942441 -0.2305195779 0.01213261113 1.890010412e-38
0.6228890419 -0.2331763506 0.01213056315 1.890010412e-38
0.6227838397 -0.2358321846 0.01212851331 1.890010412e-38
0.6226786971 -0.2384871244 0.01212646533 1.890010412e-38
0.6225735545 -0.2411411852 0.01212441921 1.890010412e-38
0.6224684715 -0.2437943369 0.01212237217 1.890010412e-38
0.6223635077 -0.2464466393 0.01212032791 1.890010412e-38
0.6222586036 -0.2490980476 0.01211828459 1.890010412e-38
0.6221535802 -0.2517485023 0.01211623941 1.890010412e-38
0.622048676 -0.2543980777 0.01211419608 1.890010412e-38
0.6219437718 -0.2570467591 0.01211215369 1.890010412e-38
0.6218389273 -0.2596945763 0.0121101113 1.890010412e-38
0.6217340231 -0.2623414397 0.01210806891 1.890010412e-38
0.6216292381 -0.2649874687 0.01210602839 1.890010412e-38
0.6215244532 -0.2676325738 0.01210398786 1.890010412e-38
0.6214197278 -0.2702768147 0.01210194826 1.890010412e-38
0.621315062 -0.2729201317 0.0120999096 1.890010412e-38
0.6212103963 -0.2755625844 0.01209787186 1.890010412e-38
0.6211057901 -0.278204143 0.01209583413 1.890010412e-38
0.621001184 -0.2808448076 0.01209379733 1.890010412e-38
0.6208966374 -0.2834845781 0.01209176052 1.890010412e-38
0.6207921505 -0.2861234844 0.01208972652 1.890010412e-38
0.6206876636 -0.2887614667 0.01208769158 1.890010412e-38
0.6205832362 -0.2913985848 0.01208565757 1.890010412e-38
0.6204787493 -0.2940348089 0.01208362356 1.890010412e-38
0.6203743815 -0.296670109 0.01208159048 1.890010412e-38
0.6202700734 -0.2993045747 0.01207955927 1.890010412e-38
0.6201657653 -0.3019381166 0.01207752712 1.890010412e-38
0.6200615168 -0.3045708239 0.01207549684 1.890010412e-38
0.6199572682 -0.3072026074 0.01207346749 1.890010412e-38
0.6198530793 -0.3098335266 0.01207143813 1.890010412e-38
0.6197488904 -0.312463522 0.01206940878 1.890010412e-38
0.6196447015 -0.315092653 0.01206738036 1.890010412e-38
0.6195406318 -0.3177209496 0.0120653538 1.890010412e-38
0.6194366217 -0.3203483224 0.01206332725 1.890010412e-38
0.6193326116 -0.3229748309 0.01206130255 1.890010412e-38
0.6192285419 -0.3256004155 0.01205927599 1.890010412e-38
0.619124651 -0.3282251656 0.01205725223 1.890010412e-38
0.6190207005 -0.3308489919 0.01205522846 1.890010412e-38
0.6189168096 -0.3334719539 0.0120532047 1.890010412e-38
0.6188130379 -0.3360940516 0.01205118373 1.890010412e-38
0.618709147 -0.3387152553 0.0120491609 1.890010412e-38
0.6186054349 -0.3413355947 0.01204714086 1.890010412e-38
0.6185016632 -0.34395504 0.01204511989 1.890010412e-38
0.6183980107 -0.346573621 0.01204310078 1.890010412e-38
0.6182942986 -0.349191308 0.01204108074 1.890010412e-38
0.6181905866 -0.3518081009 0.01203906164 1.890010412e-38
0.6180869937 -0.3544240594 0.01203704439 1.890010412e-38
0.6179834008 -0.3570390642 0.01203502715 1.880790849e-38
0.6178799272 -0.3596532941 0.01203301083 1.880790849e-38
0.6177763939 -0.3622665703 0.01203099452 1.880790849e-38
0.6176729798 -0.3648790419 0.012028981 1.880790849e-38
0.6175695062 -0.3674905598 0.01202696655 1.880790849e-38
0.6174660325 -0.3701012433 0.01202495117 1.880790849e-38
0.6173627377 -0.3727110922 0.01202293951 1.880790849e-38
0.6172593832 -0.3753199875 0.01202092692 1.880790849e-38
0.617156148 -0.3779280782 0.0120189162 1.880790849e-38
0.6170528531 -0.3805352747 0.01201690454 1.880790849e-38
0.6169496775 -0.383141607 0.01201489475 1.880790849e-38
0.6168464422 -0.3857470453 0.01201288495 1.880790849e-38
0.6167432666 -0.3883515894 0.01201087516 1.880790849e-38
0.6166402102 -0.3909553289 0.01200886816 1.880790849e-38
0.6165370345 -0.3935581446 0.0120068593 1.880790849e-38
0.6164340377 -0.3961600959 0.01200485416 1.880790849e-38
0.6163309813 -0.398761183 0.01200284623 1.880790849e-38
0.616228044 -0.4013614357 0.01200084202 1.880790849e-38
0.6161250472 -0.4039607644 0.01199883595 1.880790849e-38
0.61602211 -0.4065591991 0.01199683081 1.880790849e-38
0.6159192324 -0.4091568589 0.01199482754 1.880790849e-38
0.6158163548 -0.4117535651 0.01199282426 1.880790849e-38
0.6157136559 -0.4143495262 0.01199082378 1.880790849e-38
0.6156108379 -0.4169445038 0.01198882144 1.880790849e-38
0.6155080795 -0.4195386767 0.01198682096 1.880790849e-38
0.6154053211 -0.4221319258 0.01198481955 1.880790849e-38
0.6153026819 -0.4247243404 0.01198282 1.880790849e-38
0.6527057886 0.4505425394 0.009886479005 1.862351723e-38
0.6525902748 0.4476385713 0.00988472905 1.862351723e-38
0.6524748802 0.4447357059 0.009882980958 1.862351723e-38
0.652359426 0.4418337941 0.009881232865 1.862351723e-38
0.652244091 0.4389329851 0.009879485704 1.862351723e-38
0.6521286964 0.4360330701 0.009877737612 1.871571286e-38
0.6520134807 0.4331343472 0.009875993244 1.871571286e-38
0.6518981457 0.4302364886 0.009874246083 1.871571286e-38
0.6517829895 0.4273397624 0.009872500785 1.871571286e-38
0.6516678333 0.4244440496 0.009870757349 1.871571286e-38
0.6515526175 0.4215492904 0.00986901205 1.871571286e-38
0.6514375806 0.4186556041 0.009867269546 1.871571286e-38
0.651322484 0.4157629311 0.00986552611 1.871571286e-38
0.6512075663 0.412871331 0.009863785468 1.871571286e-38
0.6510925889 0.4099806845 0.009862043895 1.871571286e-38
0.6509776115 0.4070910513 0.009860302322 1.871571286e-38
0.6508627534 0.4042024612 0.009858562611 1.871571286e-38
0.6507478952 0.4013149142 0.0098568229 1.871571286e-38
0.6506330967 0.3984283507 0.009855084121 1.871571286e-38
0.6505182981 0.3955428004 0.009853345342 1.871571286e-38
0.6504036188 0.392658323 0.009851608425 1.871571286e-38
0.6502889395 0.3897748291 0.009849871509 1.871571286e-38
0.6501743197 0.3868923783 0.009848135523 1.871571286e-38
0.6500596404 0.3840108812 0.009846398607 1.871571286e-38
0.6499450207 0.3811303973 0.009844662622 1.871571286e-38
0.6498305798 0.3782510161 0.009842928499 1.871571286e-38
0.6497160792 0.3753725886 0.009841194376 1.871571286e-38
0.6496016979 0.3724952042 0.009839461185 1.871571286e-38
0.649487257 0.3696188033 0.009837727994 1.871571286e-38
0.6493729353 0.3667434454 0.009835996665 1.871571286e-38
0.649258554 0.3638690412 0.009834264405 1.871571286e-38
0.6491442919 0.3609957099 0.009832533076 1.871571286e-38
0.6490300894 0.3581233621 0.00983080361 1.871571286e-38
0.6489158273 0.3552519977 0.009829072282 1.871571286e-38
0.648801744 0.352381736 0.009827344678 1.871571286e-38
0.6486875415 0.3495123982 0.009825615212 1.871571286e-38
0.6485734582 0.3466441035 0.009823887609 1.871571286e-38
0.6484594941 0.3437767923 0.009822160006 1.871571286e-38
0.6483454704 0.3409105241 0.009820433334 1.871571286e-38
0.6482315063 0.3380452394 0.009818707593 1.871571286e-38
0.6481175423 0.335180968 0.009816980921 1.871571286e-38
0.6480036974 0.3323177099 0.009815257043 1.871571286e-38
0.6478898525 0.3294554651 0.009813532233 1.871571286e-38
0.6477760673 0.3265942037 0.009811809286 1.871571286e-38
0.647662282 0.3237339556 0.009810085408 1.871571286e-38
0.6475485563 0.3208747208 0.009808363393 1.871571286e-38
0.6474348903 0.3180164993 0.009806641378 1.871571286e-38
0.6473212838 0.3151592314 0.009804920293 1.871571286e-38
0.6472076178 0.3123030066 0.009803199209 1.871571286e-38
0.6470940709 0.3094477654 0.009801479056 1.871571286e-38
0.6469805837 0.3065935373 0.009799759835 1.871571286e-38
0.6468670964 0.3037403226 0.009798040614 1.871571286e-38
0.6467536688 0.3008880913 0.009796322323 1.871571286e-38
0.6466402411 0.2980368733 0.009794604965 1.871571286e-38
0.6465269327 0.2951866686 0.009792888537 1.871571286e-38
0.6464135647 0.2923374176 0.009791171178 1.871571286e-38
0.6463002563 0.28948915 0.009789455682 1.871571286e-38
0.646187067 0.2866419256 0.009787740186 1.871571286e-38
0.6460738182 0.2837956846 0.00978602469 1.871571286e-38
0.6459606886 0.2809504867 0.009784311987 1.871571286e-38
0.645847559 0.2781062424 0.009782597423 1.871571286e-38
0.645734489 0.2752630115 0.009780885652 1.871571286e-38
0.645621419 0.2724207342 0.009779172949 1.871571286e-38
0.6455084682 0.2695795 0.009777461179 1.871571286e-38
0.6453954577 0.2667392492 0.009775750339 1.871571286e-38
0.6452825069 0.2638999522 0.009774039499 1.871571286e-38
0.6451696754 0.261061728 0.009772330523 1.871571286e-38
0.6450567842 0.2582244277 0.009770619683 1.871571286e-38
0.6449440122 0.2553881407 0.009768911637 1.871571286e-38
0.6448312402 0.2525528371 0.009767203592 1.871571286e-38
0.6447185278 0.2497185618 0.009765496477 1.871571286e-38
0.6446058154 0.2468852401 0.009763789363 1.871571286e-38
0.6444931626 0.2440529168 0.00976208318 1.871571286e-38
0.6443805695 0.2412215918 0.009760377929 1.871571286e-38
0.6442679763 0.2383912206 0.009758671746 1.871571286e-38
0.6441555023 0.2355618924 0.009756968357 1.871571286e-38
0.6440429091 0.232733503 0.009755263105 1.871571286e-38
0.6439305544 0.2299061567 0.009753561579 1.871571286e-38
0.64381814 0.2270797491 0.00975185819 1.871571286e-38
0.6437057257 0.2242543548 0.009750155732 1.871571286e-38
0.6435934305 0.221429944 0.009748455137 1.871571286e-38
0.6434811354 0.2186065018 0.009746753611 1.871571286e-38
0.6433688402 0.215784058 0.009745053016 1.871571286e-38
0.6432566047 0.2129625827 0.009743353352 1.871571286e-38
0.6431444883 0.2101421356 0.00974165462 1.871571286e-38
0.6430323124 0.2073226273 0.009739955887 1.871571286e-38
0.6429202557 0.2045041323 0.009738258086 1.871571286e-38
0.6428081393 0.2016865909 0.009736560285 1.871571286e-38
0.6426960826 0.1988700181 0.009734863415 1.871571286e-38
0.6425842047 0.1960544735 0.009733167477 1.871571286e-38
0.6424722075 0.1932398677 0.009731471539 1.871571286e-38
0.6423603296 0.1904262751 0.009729777463 1.871571286e-38
0.6422483921 0.1876136363 0.009728082456 1.871571286e-38
0.6421366334 0.1848020107 0.009726389311 1.871571286e-38
0.6420248151 0.1819913387 0.009724695235 1.871571286e-38
0.641913116 0.1791816652 0.009723003022 1.871571286e-38
0.6418014169 0.1763729602 0.009721310809 1.871571286e-38
0.6416896582 0.1735652089 0.009719618596 1.871571286e-38
0.6415780783 0.1707584709 0.009717928246 1.871571286e-38
0.6414664388 0.1679526716 0.009716236964 1.871571286e-38
0.6413549781 0.1651479006 0.009714549407 1.871571286e-38
0.6412433982 0.1623440534 0.009712859057 1.871571286e-38
0.6411319971 0.1595412195 0.0097111715 1.871571286e-38
0.6410205364 0.1567393392 0.009709483013 1.871571286e-38
0.6409090757 0.1539384127 0.009707794525 1.871571286e-38
0.6407977343 0.1511384696 0.009706108831 1.871571286e-38
0.6406863928 0.14833951 0.009704422206 1.871571286e-38
0.6405751109 0.1455415487 0.009702737443 1.871571286e-38
0.6404638886 0.1427445263 0.009701051749 1.871571286e-38
0.6403526664 0.1399484724 0.009699366987 1.871571286e-38
0.6402414441 0.137153402 0.009697683156 1.871571286e-38
0.6401304007 0.134359315 0.009696000256 1.871571286e-38
0.6400192976 0.1315661669 0.009694317356 1.871571286e-38
0.6399081945 0.1287740022 0.009692635387 1.871571286e-38
0.6397972107 0.125982821 0.009690953419 1.871571286e-38
0.6396862268 0.123192586 0.009689272381 1.871571286e-38
0.6395753026 0.1204033419 0.009687593207 1.871571286e-38
0.6394643784 0.1176150367 0.009685913101 1.871571286e-38
0.6393535733 0.1148277298 0.009684233926 1.871571286e-38
0.6392427087 0.1120413616 0.009682554752 1.871571286e-38
0.6391319036 0.1092559695 0.009680876508 1.871571286e-38
0.6390212178 0.1064715534 0.009679200128 1.871571286e-38
0.6389104724 0.103688091 0.009677522816 1.871571286e-38
0.6387998462 0.1009055898 0.009675846435 1.871571286e-38
0.63868922 0.0981240496 0.009674170986 1.871571286e-38
0.6385785937 0.09534347802 0.009672495537 1.871571286e-38
0.6384680867 0.09256387502 0.009670821019 1.871571286e-38
0.6383575797 0.08978523314 0.009669148363 1.871571286e-38
0.6382470727 0.08700754493 0.009667473845 1.871571286e-38
0.6381366253 0.0842308253 0.00966580119 1.871571286e-38
0.6380262375 0.0814550668 0.009664128534 1.871571286e-38
0.6379158497 0.07868026942 0.009662457742 1.871571286e-38
0.6378055811 0.07590643317 0.009660786949 1.871571286e-38
0.6376952529 0.07313353568 0.009659115225 1.871571286e-38
0.6375850439 0.07036161423 0.009657446295 1.871571286e-38
0.6374748349 0.06759064645 0.009655776434 1.871571286e-38
0.6373646259 0.06482063979 0.009654107504 1.871571286e-38
0.6372545362 0.06205159426 0.009652440436 1.871571286e-38
0.6371443868 0.05928349495 0.009650771506 1.871571286e-38
0.6370343566 0.05651636049 0.00964910537 1.880790849e-38
0.6369243264 0.05375017971 0.009647438303 1.880790849e-38
0.6368143559 0.05098495632 0.009645773098 1.880790849e-38
0.6367044449 0.04822068289 0.009644107893 1.880790849e-38
0.6365945339 0.04545736685 0.00964244362 1.880790849e-38
0.6364846826 0.04269500449 0.009640779346 1.880790849e-38
0.6363747716 0.03993359208 0.009639114141 1.880790849e-38
0.6362650394 0.03717313707 0.009637451731 1.880790849e-38
0.6361552477 0.03441362828 0.00963578932 1.880790849e-38
0.6360455751 0.03165507689 0.00963412784 1.880790849e-38
0.6359359026 0.02889747731 0.009632466361 1.880790849e-38
0.63582623 0.02614082582 0.009630805813 1.880790849e-38
0.6357166171 0.02338512428 0.009629145265 1.880790849e-38
0.6356070638 0.02063037455 0.009627486579 1.880790849e-38
0.63549757 0.01787657663 0.009625827894 1.880790849e-38
0.6353880167 0.01512372214 0.009624168277 1.880790849e-38
0.6352786422 0.0123718204 0.009622511454 1.880790849e-38
0.6351691484 0.009620863013 0.009620852768 1.880790849e-38
0.6350598335 0.006870855112 0.009619197808 1.880790849e-38
0.6349505186 0.004121792968 0.009617540985 1.880790849e-38
0.6348412037 0.001373678097 0.009615886025 1.880790849e-38
0.6347318292 -0.001373491017 0.009614195675 1.880790849e-38
0.6346225739 -0.004119714256 0.009612541646 1.880790849e-38
0.6345134377 -0.006864993367 0.009610887617 1.880790849e-38
0.634404242 -0.00960932672 0.009609234519 1.880790849e-38
0.6342952251 -0.01235271804 0.009607582353 1.880790849e-38
0.634186089 -0.01509513706 0.009605998173 1.880790849e-38
0.6340770721 -0.01783664152 0.009604346938 1.880790849e-38
0.6339680552 -0.02057720162 0.009602695704 1.880790849e-38
0.633859098 -0.02331681922 0.0096010454 1.880790849e-38
0.6337502003 -0.02605549805 0.009599396028 1.880790849e-38
0.6336413026 -0.02879323438 0.009597745724 1.880790849e-38
0.6335324645 -0.03153003007 0.009596097283 1.880790849e-38
0.6334236264 -0.03426588327 0.009594448842 1.880790849e-38
0.6333149076 -0.03700080141 0.009592802264 1.880790849e-38
0.6332061291 -0.03973478079 0.009591154754 1.880790849e-38
0.6330974102 -0.04246781766 0.009589508176 1.880790849e-38
0.6329888105 -0.04519991577 0.009587862529 1.880790849e-38
0.6328801513 -0.0479310751 0.009586216882 1.880790849e-38
0.6327715516 -0.0506613031 0.009584572166 1.880790849e-38
0.6326630116 -0.05339059234 0.009582927451 1.880790849e-38
