# .PCD v0.7 - Point Cloud Data file format
VERSION 0.7
FIELDS x y z rgb
SIZE 4 4 4 4
TYPE F F F F
COUNT 1 1 1 1
WIDTH 861
HEIGHT 1
VIEWPOINT 0 0 0 1 0 0 0
POINTS 861
DATA ascii
0.4499215484 -0.2891484499 0.1820564717 1.880790849e-38
0.4498775899 -0.2910671532 0.1820386946 1.880790849e-38
0.4498336315 -0.2929854393 0.1820209026 1.880790849e-38
0.4497896731 -0.2949033678 0.1820031106 1.880790849e-38
0.4497457445 -0.2968209386 0.1819853336 1.880790849e-38
0.4497017562 -0.2987380922 0.1819675267 1.880790849e-38
0.4496578574 -0.3006548882 0.1819497645 1.880790849e-38
0.4496139288 -0.3025713265 0.1819320023 1.880790849e-38
0.4495700002 -0.3044873774 0.1819142252 1.880790849e-38
0.4495261014 -0.3064030707 0.181896463 1.880790849e-38
0.4494822025 -0.3083183467 0.1818787009 1.880790849e-38
0.4494383335 -0.3102333248 0.1818609536 1.880790849e-38
0.4654843211 0.3213093579 0.1863393039 1.871571286e-38
0.4654372931 0.319262594 0.1863204688 1.871571286e-38
0.4653902054 0.3172162473 0.1863016188 1.871571286e-38
0.4653431475 0.3151703179 0.1862827837 1.871571286e-38
0.4652961493 0.3131248057 0.1862639636 1.871571286e-38
0.4652491212 0.3110796809 0.1862451434 1.871571286e-38
0.4652020931 0.3090350032 0.1862263232 1.871571286e-38
0.4651550949 0.3069907129 0.1862075031 1.871571286e-38
0.4651080668 0.3049468398 0.1861886829 1.871571286e-38
0.4650610983 0.302903384 0.1861698776 1.871571286e-38
0.4650141299 0.3008603454 0.1861510724 1.871571286e-38
0.4649671316 0.298817724 0.1861322671 1.871571286e-38
0.464920193 0.2967755198 0.1861134768 1.871571286e-38
0.4648732543 0.2947337031 0.1860946864 1.871571286e-38
0.4648263156 0.2926923335 0.1860758811 1.871571286e-38
0.464779377 0.2906513214 0.1860570908 1.871571286e-38
0.4647324681 0.2886107862 0.1860383153 1.871571286e-38
0.4646855295 0.2865706086 0.1860195398 1.871571286e-38
0.4646386206 0.2845308781 0.1860007495 1.862351723e-38
0.4645917416 0.2824915349 0.1859819889 1.825473471e-38
0.4645448625 0.2804526389 0.1859632283 1.788595219e-38
0.4644979835 0.2784141004 0.1859444529 1.742497404e-38
0.4644511044 0.2763759792 0.1859256923 1.705619152e-38
0.4644042552 0.2743383348 0.1859069318 1.659521338e-38
0.4643574357 0.272301048 0.1858881861 1.613423523e-38
0.4643105865 0.2702641785 0.1858694255 1.567325708e-38
0.464263767 0.2682277262 0.1858506948 1.521227893e-38
0.4642169476 0.2661916912 0.1858319491 1.465910515e-38
0.4641701281 0.2641560435 0.1858132184 1.410593137e-38
0.4641233087 0.2621208429 0.1857944727 1.401373574e-38
0.4640765488 0.260086 0.1857757419 1.410593137e-38
0.4640297592 0.2580516338 0.1857570112 1.438251826e-38
0.4639829695 0.2560176253 0.1857382953 1.475130078e-38
0.4639362395 0.2539840639 0.1857195795 1.521227893e-38
0.4638894796 0.2519508898 0.1857008636 1.567325708e-38
0.46384269 0.2499181032 0.1856821328 1.631862649e-38
0.4637959599 0.2478857338 0.185663417 1.696399589e-38
0.4637492299 0.2458538115 0.185644716 1.770156093e-38
0.4637025297 0.2438222617 0.1856260151 1.843912597e-38
0.4636558294 0.2417911589 0.185607329 1.871571286e-38
0.4636091292 0.2397604287 0.1855886281 1.871571286e-38
0.4635624588 0.2377301455 0.185569942 1.871571286e-38
0.4635157585 0.2357002348 0.1855512559 1.871571286e-38
0.4634691179 0.2336707413 0.1855325848 1.871571286e-38
0.4634224772 0.23164168 0.1855139136 1.871571286e-38
0.4633758068 0.2296129912 0.1854952276 1.871571286e-38
0.4633291662 0.2275847346 0.1854765564 1.871571286e-38
0.4632825553 0.2255568802 0.1854579002 1.871571286e-38
0.4632358849 0.2235294282 0.185439229 1.871571286e-38
0.4631893039 0.2215023935 0.1854205728 1.871571286e-38
0.463142693 0.2194757611 0.1854019165 1.871571286e-38
0.463096112 0.217449531 0.1853832603 1.871571286e-38
0.463049531 0.215423733 0.1853646189 1.871571286e-38
0.46300295 0.2133983076 0.1853459775 1.871571286e-38
0.4629563987 0.2113733292 0.1853273362 1.871571286e-38
0.4629098475 0.2093487233 0.1853086948 1.871571286e-38
0.4628632963 0.2073245347 0.1852900684 1.871571286e-38
0.462816745 0.2053007483 0.185271427 1.871571286e-38
0.4627702236 0.2032773793 0.1852528006 1.871571286e-38
0.4627237022 0.2012544274 0.185234189 1.871571286e-38
0.4626772106 0.1992318779 0.1852155775 1.871571286e-38
0.4626306891 0.1972097158 0.185196951 1.871571286e-38
0.4625842273 0.195187971 0.1851783395 1.871571286e-38
0.4625377357 0.1931666285 0.1851597428 1.871571286e-38
0.4624912739 0.1911457032 0.1851411462 1.871571286e-38
0.4624448121 0.1891251802 0.1851225495 1.871571286e-38
0.46239838 0.1871050596 0.1851039529 1.871571286e-38
0.4623519182 0.1850853413 0.1850853562 1.871571286e-38
0.4623054564 0.1830660254 0.1850667596 1.871571286e-38
0.4622590542 0.1810471267 0.1850481778 1.871571286e-38
0.462212652 0.1790286303 0.185029611 1.871571286e-38
0.4621662498 0.1770105362 0.1850110292 1.871571286e-38
0.4621198475 0.1749928594 0.1849924624 1.871571286e-38
0.4620734751 0.17297557 0.1849738806 1.871571286e-38
0.4620270729 0.1709586978 0.1849553138 1.871571286e-38
0.4619807303 0.1689422131 0.1849367619 1.880790849e-38
0.4619343579 0.1669261456 0.1849182099 1.880790849e-38
0.4618880153 0.1649104804 0.1848996431 1.880790849e-38
0.4618416429 0.1628952175 0.1848810911 1.880790849e-38
0.46179533 0.160880357 0.1848625541 1.880790849e-38
0.4617490172 0.1588659137 0.1848440021 1.880790849e-38
0.4617027044 0.1568518579 0.1848254651 1.880790849e-38
0.4616563916 0.1548382193 0.184806928 1.880790849e-38
0.4616101086 0.152824983 0.1847884059 1.880790849e-38
0.4615638256 0.150812149 0.1847698689 1.880790849e-38
0.4615175426 0.1487997174 0.1847513467 1.880790849e-38
0.4614712894 0.1467876881 0.1847328246 1.880790849e-38
0.4614250362 0.1447760761 0.1847143024 1.880790849e-38
0.4613787532 0.1427648515 0.1846957952 1.880790849e-38
0.4613325298 0.1407540292 0.1846772879 1.880790849e-38
0.4612863064 0.1387436241 0.1846587807 1.880790849e-38
0.461240083 0.1367336065 0.1846402735 1.880790849e-38
0.4611938596 0.1347239912 0.1846217811 1.880790849e-38
0.4611476958 0.1327147931 0.1846032888 1.880790849e-38
0.4611015022 0.1307059824 0.1845847964 1.880790849e-38
0.4610553086 0.1286975741 0.1845663041 1.880790849e-38
0.4610091448 0.1266895831 0.1845478266 1.880790849e-38
0.460962981 0.1246819794 0.1845293492 1.880790849e-38
0.4609168172 0.1226747781 0.1845108718 1.880790849e-38
0.4608706832 0.1206679866 0.1844923943 1.880790849e-38
0.4608245492 0.1186615974 0.1844739318 1.880790849e-38
0.4607784152 0.1166556031 0.1844554693 1.880790849e-38
0.4607322812 0.1146500185 0.1844370067 1.880790849e-38
0.4606861472 0.112644814 0.1844185293 1.880790849e-38
0.460640043 0.1106400341 0.1844000667 1.880790849e-38
0.4605939388 0.1086356491 0.1843816191 1.880790849e-38
0.4605478942 0.1066316664 0.1843631864 1.880790849e-38
0.46050179 0.1046280786 0.1843447238 1.880790849e-38
0.4604557455 0.1026249006 0.1843262911 1.880790849e-38
0.4604096711 0.1006221175 0.1843078583 1.880790849e-38
0.4603636563 0.09861974418 0.1842894256 1.880790849e-38
0.4603176415 0.09661776572 0.1842710078 1.880790849e-38
0.4602715969 0.09461618215 0.184252575 1.880790849e-38
0.4602255821 0.0926150009 0.1842341572 1.880790849e-38
0.4601795673 0.09061422199 0.1842157394 1.880790849e-38
0.4601335824 0.08861384541 0.1841973364 1.880790849e-38
0.4600875974 0.08661386371 0.1841789186 1.880790849e-38
0.4600416124 0.08461427689 0.1841605008 1.880790849e-38
0.4599956274 0.08261509985 0.1841421127 1.880790849e-38
0.4599496722 0.08061631769 0.1841237098 1.880790849e-38
0.459903717 0.07861793786 0.1841053069 1.880790849e-38
0.4598577917 0.07661996037 0.1840869188 1.880790849e-38
0.4598118663 0.07462237775 0.1840685308 1.880790849e-38
0.4597659409 0.07262519002 0.1840501577 1.880790849e-38
0.4597200155 0.07062839717 0.1840317696 1.880790849e-38
0.4596741199 0.0686320141 0.1840133965 1.880790849e-38
0.4596282244 0.06663602591 0.1839950234 1.880790849e-38
0.4595823288 0.06464044005 0.1839766502 1.880790849e-38
0.459536463 0.06264524907 0.183958292 1.880790849e-38
0.4594905674 0.0606504567 0.1839399189 1.880790849e-38
0.4594447315 0.05865606666 0.1839215755 1.880790849e-38
0.4593988359 0.05666206405 0.1839032024 1.880790849e-38
0.4593529999 0.05466846749 0.1838848442 1.890010412e-38
0.4593071342 0.05267526582 0.183866486 1.890010412e-38
0.459261328 0.05068246275 0.1838481575 1.890010412e-38
0.4592155218 0.04869005457 0.1838298142 1.890010412e-38
0.4591697156 0.04669804499 0.1838114858 1.890010412e-38
0.4591239095 0.04470643774 0.1837931424 1.890010412e-38
0.4590781331 0.04271522164 0.183774814 1.890010412e-38
0.4590323567 0.04072440788 0.1837564856 1.890010412e-38
0.4589865804 0.03873399273 0.1837381721 1.890010412e-38
0.4589408338 0.03674396873 0.1837198585 1.890010412e-38
0.4588950574 0.03475433961 0.1837015301 1.890010412e-38
0.4588493109 0.03276510909 0.1836832166 1.890010412e-38
0.4588035643 0.03077627905 0.183664903 1.890010412e-38
0.4587578475 0.02878784388 0.1836466044 1.890010412e-38
0.4587121308 0.02679980546 0.1836283058 1.890010412e-38
0.4586664438 0.02481216192 0.1836100072 1.890010412e-38
0.4586207271 0.02282491326 0.1835917234 1.890010412e-38
0.4585750401 0.02083806321 0.1835734248 1.890010412e-38
0.4585293829 0.01885160804 0.1835551411 1.890010412e-38
0.458483696 0.01686554775 0.1835368574 1.890010412e-38
0.4584380388 0.0148798842 0.1835185736 1.890010412e-38
0.4583923817 0.0128946146 0.1835003048 1.890010412e-38
0.4583467543 0.01090974174 0.183482036 1.890010412e-38
0.4583010972 0.00892526377 0.1834637672 1.890010412e-38
0.4582554996 0.006941181142 0.1834455132 1.890010412e-38
0.4582098722 0.004957492929 0.1834272444 1.890010412e-38
0.4581642747 0.00297419983 0.1834089905 1.890010412e-38
0.4581186771 0.0009913014947 0.1833907366 1.890010412e-38
0.4580731094 -0.0009912023088 0.1833724976 1.890010412e-38
0.4580275118 -0.002973311348 0.1833542436 1.890010412e-38
0.4579819441 -0.004955026321 0.1833359897 1.890010412e-38
0.4579364061 -0.006936347112 0.1833177656 1.890010412e-38
0.4578908384 -0.008917273022 0.1832995266 1.890010412e-38
0.4578453004 -0.01089780591 0.1832813025 1.890010412e-38
0.4577997625 -0.01287794393 0.1832630634 1.890010412e-38
0.4577542245 -0.01485768892 0.1832448393 1.890010412e-38
0.4577087164 -0.01683703996 0.1832266301 1.890010412e-38
0.457663238 -0.01881599613 0.183208406 1.890010412e-38
0.4576177299 -0.02079456113 0.1831901968 1.899229975e-38
0.4575722516 -0.02277273312 0.1831719875 1.899229975e-38
0.4575267434 -0.02475050837 0.1831537783 1.899229975e-38
0.4574812949 -0.0267278906 0.183135584 1.899229975e-38
0.4574358463 -0.02870488726 0.1831173897 1.899229975e-38
0.457390368 -0.03068148345 0.1830991805 1.899229975e-38
0.4573449492 -0.03265769035 0.183081001 1.899229975e-38
0.4572995007 -0.03463350236 0.1830628067 1.899229975e-38
0.4572541118 -0.03660892323 0.1830446273 1.899229975e-38
0.4572086632 -0.03858395293 0.1830264479 1.899229975e-38
0.4571632445 -0.04055858776 0.1830082685 1.899229975e-38
0.4571178555 -0.04253282771 0.1829900891 1.899229975e-38
0.4570724964 -0.04450668022 0.1829719245 1.899229975e-38
0.4570271075 -0.04648014158 0.1829537749 1.899229975e-38
0.4569817483 -0.04845320806 0.1829356104 1.899229975e-38
0.4569363594 -0.05042588711 0.1829174459 1.899229975e-38
0.4568910301 -0.05239816755 0.1828992963 1.899229975e-38
0.4568457007 -0.05437006801 0.1828811467 1.899229975e-38
0.4568003416 -0.05634156987 0.1828629971 1.899229975e-38
0.4567550123 -0.05831267685 0.1828448474 1.899229975e-38
0.4567097127 -0.06028339639 0.1828267127 1.899229975e-38
0.4566644132 -0.06225372478 0.182808578 1.899229975e-38
0.4566191137 -0.06422366202 0.1827904284 1.899229975e-38
0.4565737844 -0.0661932081 0.1827722937 1.899229975e-38
0.4565285146 -0.0681623593 0.1827541739 1.899229975e-38
0.4564832449 -0.07013112307 0.1827360541 1.899229975e-38
0.456438005 -0.07209950686 0.1827179492 1.899229975e-38
0.4563927352 -0.07406748831 0.1826998144 1.899229975e-38
0.4563474953 -0.07603508979 0.1826817095 1.899229975e-38
0.4563022554 -0.07800228894 0.1826636046 1.899229975e-38
0.4562570155 -0.07996910065 0.1826454848 1.899229975e-38
0.4562117755 -0.08193551749 0.1826273799 1.899229975e-38
0.4561665654 -0.08390155435 0.182609275 1.899229975e-38
0.4561213851 -0.08586720377 0.1825911999 1.899229975e-38
0.456076175 -0.08783245832 0.182573095 1.899229975e-38
0.4560310245 -0.08979732543 0.1825550199 1.899229975e-38
0.4559858441 -0.09176179767 0.1825369298 1.899229975e-38
0.4559406638 -0.09372588247 0.1825188547 1.899229975e-38
0.4558955133 -0.09568959475 0.1825007796 1.899229975e-38
0.4558503926 -0.09765290469 0.1824827045 1.899229975e-38
0.4558052421 -0.09961581975 0.1824646443 1.899229975e-38
0.4557601213 -0.1015783623 0.1824465841 1.899229975e-38
0.4557150006 -0.103540495 0.182428509 1.899229975e-38
0.4556698799 -0.1055022553 0.1824104488 1.899229975e-38
0.4556248188 -0.1074636281 0.1823924035 1.899229975e-38
0.4555796981 -0.1094245985 0.1823743433 1.899229975e-38
0.4555346072 -0.111385189 0.182356298 1.899229975e-38
0.4554895461 -0.113345392 0.1823382527 1.899229975e-38
0.4554444551 -0.1153052077 0.1823202223 1.899229975e-38
0.4553994238 -0.1172646359 0.182302177 1.899229975e-38
0.4553543925 -0.1192236766 0.1822841465 1.899229975e-38
0.4553093314 -0.1211823225 0.1822661161 1.899229975e-38
0.4552643001 -0.1231405884 0.1822480857 1.899229975e-38
0.4552192986 -0.1250984669 0.1822300702 1.899229975e-38
0.4551742673 -0.1270559579 0.1822120547 1.899229975e-38
0.4551292658 -0.1290130615 0.1821940392 1.899229975e-38
0.4550842941 -0.1309697926 0.1821760237 1.899229975e-38
0.4550393224 -0.1329261214 0.1821580231 1.899229975e-38
0.4549943209 -0.1348820627 0.1821400225 1.899229975e-38
0.4549493492 -0.1368376166 0.1821220219 1.899229975e-38
0.4549044073 -0.138792783 0.1821040213 1.899229975e-38
0.4548594356 -0.1407475621 0.1820860207 1.899229975e-38
0.4548145235 -0.1427019686 0.182068035 1.899229975e-38
0.4547695816 -0.1446559727 0.1820500493 1.899229975e-38
0.4547246695 -0.1466096044 0.1820320636 1.899229975e-38
0.4546797574 -0.1485628337 0.1820140928 1.899229975e-38
0.4546348453 -0.1505156904 0.1819961071 1.899229975e-38
0.4545899332 -0.1524681449 0.1819781363 1.899229975e-38
0.4545450509 -0.1544202268 0.1819601655 1.899229975e-38
0.4545001686 -0.1563719362 0.1819421947 1.899229975e-38
0.4544552863 -0.1583232433 0.1819242388 1.899229975e-38
0.4544104338 -0.1602741629 0.1819062829 1.890010412e-38
0.4543655813 -0.16222471 0.181888327 1.890010412e-38
0.4543207586 -0.1641748548 0.1818703711 1.890010412e-38
0.4542759061 -0.166124627 0.1818524301 1.890010412e-38
0.4542310834 -0.1680740118 0.1818344891 1.890010412e-38
0.4541862607 -0.1700230241 0.1818165481 1.890010412e-38
0.4541414678 -0.1719716489 0.1817986071 1.890010412e-38
0.4540966749 -0.1739198864 0.181780681 1.890010412e-38
0.4540518522 -0.1758677214 0.18176274 1.890010412e-38
0.4540070891 -0.177815184 0.1817448139 1.890010412e-38
0.453962326 -0.179762274 0.1817269027 1.890010412e-38
0.453917563 -0.1817089617 0.1817089766 1.890010412e-38
0.4538727999 -0.1836552769 0.1816910654 1.890010412e-38
0.4538280666 -0.1856012046 0.1816731393 1.890010412e-38
0.4537833035 -0.1875467449 0.1816552281 1.890010412e-38
0.4537386 -0.1894918978 0.1816373318 1.890010412e-38
0.4536938369 -0.1914366633 0.1816194206 1.890010412e-38
0.4536491334 -0.1933810562 0.1816015244 1.890010412e-38
0.4536044598 -0.1953250766 0.1815836281 1.890010412e-38
0.4535597265 -0.1972686946 0.1815657318 1.890010412e-38
0.4535150528 -0.1992119402 0.1815478504 1.890010412e-38
0.4534703791 -0.2011547983 0.1815299541 1.890010412e-38
0.4534257054 -0.2030972838 0.1815120876 1.890010412e-38
0.4533810616 -0.205039382 0.1814942062 1.890010412e-38
0.4533364177 -0.2069811076 0.1814763397 1.890010412e-38
0.4532917738 -0.2089224309 0.1814584583 1.890010412e-38
0.4532471597 -0.2108633965 0.1814406067 1.890010412e-38
0.4532025158 -0.21280393 0.1814227253 1.890010412e-38
0.4531579316 -0.2147441506 0.1814048737 1.890010412e-38
0.4531132877 -0.2166839242 0.1813870221 1.890010412e-38
0.4530687034 -0.2186233699 0.1813691705 1.890010412e-38
0.4530241191 -0.2205623984 0.181351319 1.890010412e-38
0.4529795349 -0.2225010544 0.1813334823 1.890010412e-38
0.4529349506 -0.2244393229 0.1813156307 1.890010412e-38
0.4528904259 -0.2263772339 0.181297794 1.890010412e-38
0.4528458714 -0.2283147275 0.1812799573 1.890010412e-38
0.452801317 -0.2302518636 0.1812621206 1.890010412e-38
0.4527567923 -0.232188642 0.1812442988 1.890010412e-38
0.4527122378 -0.2341249883 0.1812264621 1.890010412e-38
0.4526677132 -0.2360609919 0.1812086552 1.890010412e-38
0.4526232481 -0.2379965931 0.1811908334 1.890010412e-38
0.4525787234 -0.2399318218 0.1811730117 1.890010412e-38
0.4525342286 -0.2418666631 0.1811552346 1.890010412e-38
0.4524897337 -0.2438011467 0.1811374277 1.890010412e-38
0.4524452984 -0.2457352281 0.1811196357 1.890010412e-38
0.4524008036 -0.2476689368 0.1811018288 1.880790849e-38
0.4523563385 -0.2496022433 0.1810840219 1.880790849e-38
0.452311933 -0.2515352368 0.1810662448 1.880790849e-38
0.452267468 -0.2534677684 0.1810484529 1.880790849e-38
0.4522230625 -0.2553999722 0.1810306758 1.880790849e-38
0.4521786273 -0.2573317587 0.1810128838 1.880790849e-38
0.4521342218 -0.2592632174 0.1809951067 1.880790849e-38
0.4520897865 -0.2611942291 0.1809773296 1.880790849e-38
0.4520454109 -0.263124913 0.1809595525 1.880790849e-38
0.4520010352 -0.2650552094 0.1809417903 1.880790849e-38
0.4519566596 -0.2669851184 0.1809240282 1.880790849e-38
0.4519122839 -0.2689146399 0.180906266 1.880790849e-38
0.451867938 -0.2708438039 0.1808885038 1.880790849e-38
0.4518235624 -0.2727725804 0.1808707416 1.880790849e-38
0.4517792463 -0.2747009993 0.1808530092 1.880790849e-38
0.4517349005 -0.2766290009 0.180835247 1.880790849e-38
0.4516905844 -0.2785566449 0.1808174998 1.880790849e-38
0.4516462386 -0.2804839015 0.1807997674 1.880790849e-38
0.4516019523 -0.2824108005 0.180782035 1.880790849e-38
0.4515576363 -0.2843372822 0.1807642877 1.880790849e-38
0.45151335 -0.2862634063 0.1807465553 1.880790849e-38
0.4514690936 -0.2881891727 0.1807288527 1.880790849e-38
0.4514248073 -0.290114522 0.1807111204 1.880790849e-38
0.4513805509 -0.2920395434 0.1806934029 1.880790849e-38
0.4513362944 -0.2939641476 0.1806756854 1.880790849e-38
0.451292038 -0.2958883941 0.1806579679 1.880790849e-38
0.4512478113 -0.2978122532 0.1806402653 1.880790849e-38
0.4512035549 -0.2997357249 0.1806225479 1.880790849e-38
0.4511593282 -0.301658839 0.1806048453 1.880790849e-38
0.4511151016 -0.3035815656 0.1805871427 1.880790849e-38
0.4510709047 -0.3055039048 0.180569455 1.880790849e-38
0.4510267377 -0.3074259162 0.1805517673 1.880790849e-38
0.4509825408 -0.3093474805 0.1805340648 1.880790849e-38
0.450938344 -0.3112687171 0.1805163771 1.880790849e-38
0.4670935869 0.3224201798 0.184962064 1.871571286e-38
0.4670462012 0.3203662336 0.1849433035 1.871571286e-38
0.4669988155 0.3183127046 0.184924528 1.871571286e-38
0.4669514298 0.316259563 0.1849057823 1.871571286e-38
0.4669041038 0.3142068982 0.1848870367 1.871571286e-38
0.4668567181 0.3121545911 0.1848682761 1.871571286e-38
0.466809392 0.310102731 0.1848495305 1.871571286e-38
0.4667620659 0.3080512583 0.1848307848 1.871571286e-38
0.4667147398 0.3060002625 0.184812054 1.871571286e-38
0.4666674435 0.3039496243 0.1847933233 1.871571286e-38
0.4666201472 0.3018994331 0.1847745925 1.871571286e-38
0.4665728211 0.2998496294 0.1847558469 1.871571286e-38
0.4665255547 0.2978002727 0.184737131 1.871571286e-38
0.4664782882 0.2957513034 0.1847184151 1.871571286e-38
0.4664310217 0.2937027812 0.1846996993 1.871571286e-38
0.4663837552 0.2916546166 0.1846809834 1.871571286e-38
0.4663365185 0.2896069288 0.1846622676 1.871571286e-38
0.466289252 0.2875596285 0.1846435666 1.85313216e-38
0.4662420452 0.2855127752 0.1846248657 1.816253908e-38
0.4661948085 0.2834662795 0.1846061647 1.779375656e-38
0.4661476016 0.2814202309 0.1845874786 1.733277841e-38
0.4661003947 0.2793745697 0.1845687777 1.687180026e-38
0.4660532176 0.2773293555 0.1845500916 1.650301775e-38
0.4660060704 0.2752845585 0.1845314205 1.60420396e-38
0.4659588933 0.273240149 0.1845127344 1.548886582e-38
0.4659117162 0.2711961567 0.1844940633 1.502788767e-38
0.4658645689 0.2691525817 0.1844753921 1.447471389e-38
0.4658174217 0.2671094537 0.1844567209 1.401373574e-38
0.4657702744 0.2650666833 0.1844380498 1.336836633e-38
0.4657231867 0.2630243897 0.1844194084 1.281519255e-38
0.4656760693 0.2609824538 0.1844007522 1.272299692e-38
0.4656289518 0.2589409649 0.1843820959 1.299958381e-38
0.4655818939 0.2568998635 0.1843634546 1.346056196e-38
0.4655347764 0.2548591793 0.1843447983 1.392154011e-38
0.4654876888 0.2528189123 0.184326157 1.456690952e-38
0.4654406309 0.2507790625 0.1843075156 1.530447456e-38
0.4653935432 0.2487396002 0.1842888743 1.613423523e-38
0.4653465152 0.2467005849 0.1842702478 1.696399589e-38
0.4652994573 0.244661957 0.1842516214 1.770156093e-38
0.465252459 0.2426237762 0.1842329949 1.843912597e-38
0.465205431 0.2405859828 0.1842143834 1.871571286e-38
0.4651584327 0.2385486066 0.1841957718 1.871571286e-38
0.4651114345 0.2365116328 0.1841771603 1.871571286e-38
0.4650644362 0.2344750613 0.1841585487 1.871571286e-38
0.4650174677 0.2324389368 0.1841399521 1.871571286e-38
0.4649704993 0.2304031849 0.1841213554 1.871571286e-38
0.464923501 0.2283678651 0.1841027439 1.871571286e-38
0.4648765624 0.2263329476 0.1840841621 1.871571286e-38
0.4648296237 0.2242984623 0.1840655655 1.871571286e-38
0.4647827148 0.2222643793 0.1840469837 1.871571286e-38
0.4647357762 0.2202306986 0.184028402 1.871571286e-38
0.4646888673 0.2181974202 0.1840098202 1.871571286e-38
0.4646419883 0.2161645889 0.1839912683 1.871571286e-38
0.4645950496 0.2141321152 0.1839726865 1.871571286e-38
0.4645481706 0.2121001035 0.1839541197 1.871571286e-38
0.4645012915 0.2100684643 0.1839355528 1.871571286e-38
0.4644544721 0.2080372572 0.1839170009 1.871571286e-38
0.464407593 0.2060064375 0.1838984489 1.871571286e-38
0.4643607438 0.2039760351 0.183879897 1.871571286e-38
0.4643139243 0.2019460648 0.18386136 1.871571286e-38
0.4642670751 0.199916482 0.183842808 1.871571286e-38
0.4642202556 0.1978873163 0.183824271 1.871571286e-38
0.4641734362 0.1958585531 0.1838057339 1.871571286e-38
0.4641266763 0.193830207 0.1837872118 1.871571286e-38
0.4640798569 0.1918022633 0.1837686747 1.871571286e-38
0.4640330672 0.1897747219 0.1837501526 1.871571286e-38
0.4639863372 0.1877476126 0.1837316304 1.871571286e-38
0.4639395475 0.1857208908 0.1837131083 1.871571286e-38
0.4638927877 0.1836945862 0.1836946011 1.871571286e-38
0.4638460577 0.1816686839 0.1836760789 1.871571286e-38
0.4637993276 0.1796431988 0.1836575866 1.871571286e-38
0.4637525976 0.1776181161 0.1836390793 1.871571286e-38
0.4637058675 0.1755934358 0.1836205721 1.871571286e-38
0.4636591971 0.1735691875 0.1836020947 1.871571286e-38
0.4636124671 0.1715453118 0.1835835874 1.871571286e-38
0.4635657966 0.1695218533 0.18356511 1.880790849e-38
0.4635190964 0.1674988121 0.1835466176 1.880790849e-38
0.4634724557 0.1654761881 0.1835281551 1.880790849e-38
0.4634257853 0.1634539515 0.1835096627 1.880790849e-38
0.4633791149 0.1614321321 0.1834911853 1.880790849e-38
0.463332504 0.1594107151 0.1834727377 1.880790849e-38
0.4632858634 0.1573897004 0.1834542602 1.880790849e-38
0.4632392526 0.155369103 0.1834357977 1.880790849e-38
0.4631926119 0.1533489078 0.1834173352 1.880790849e-38
0.4631460309 0.1513291299 0.1833988875 1.880790849e-38
0.4630994499 0.1493097544 0.1833804548 1.880790849e-38
0.4630528688 0.1472907811 0.1833620071 1.880790849e-38
0.4630062878 0.1452722102 0.1833435595 1.880790849e-38
0.4629597366 0.1432540417 0.1833251268 1.880790849e-38
0.4629131556 0.1412362754 0.1833066791 1.880790849e-38
0.4628666341 0.1392189413 0.1832882613 1.880790849e-38
0.4628200829 0.1372019947 0.1832698137 1.880790849e-38
0.4627735615 0.1351854503 0.1832513958 1.880790849e-38
0.4627270401 0.1331693232 0.183232978 1.880790849e-38
0.4626805186 0.1311535835 0.1832145602 1.880790849e-38
0.4626340568 0.1291382611 0.1831961572 1.880790849e-38
0.4625875652 0.127123341 0.1831777394 1.880790849e-38
0.4625410736 0.1251088232 0.1831593364 1.880790849e-38
0.4624945819 0.1230947077 0.1831409335 1.880790849e-38
0.4624481201 0.1210810021 0.1831225306 1.880790849e-38
0.4624016881 0.1190677062 0.1831041425 1.880790849e-38
0.4623552263 0.1170548052 0.1830857396 1.880790849e-38
0.4623087943 0.1150423214 0.1830673665 1.880790849e-38
0.4622623622 0.113030225 0.1830489635 1.880790849e-38
0.4622159302 0.1110185385 0.1830305904 1.880790849e-38
0.462169528 0.1090072617 0.1830122024 1.880790849e-38
0.4621231258 0.1069963872 0.1829938293 1.880790849e-38
0.4620767534 0.1049859151 0.182975471 1.880790849e-38
0.4620303512 0.1029758453 0.1829570979 1.880790849e-38
0.4619840086 0.1009661853 0.1829387397 1.880790849e-38
0.4619376361 0.09895692766 0.1829203814 1.880790849e-38
0.4618912935 0.09694806486 0.1829020381 1.880790849e-38
0.4618449211 0.09493961185 0.1828836799 1.880790849e-38
0.4617986083 0.09293155372 0.1828653365 1.880790849e-38
0.4617522955 0.09092390537 0.1828469932 1.880790849e-38
0.4617059827 0.08891665936 0.1828286499 1.880790849e-38
0.4616596699 0.08690981567 0.1828103215 1.880790849e-38
0.4616133869 0.08490337431 0.182791993 1.880790849e-38
0.4615671039 0.08289733529 0.1827736646 1.880790849e-38
0.4615208209 0.0808916986 0.1827553213 1.880790849e-38
0.4614745677 0.07888646424 0.1827370077 1.880790849e-38
0.4614283144 0.07688163221 0.1827186942 1.880790849e-38
0.4613820314 0.07487720251 0.1827003807 1.880790849e-38
0.461335808 0.07287316769 0.1826820672 1.880790849e-38
0.4612895548 0.07086953521 0.1826637536 1.880790849e-38
0.4612433314 0.0688663125 0.182645455 1.880790849e-38
0.461197108 0.06686348468 0.1826271564 1.880790849e-38
0.4611509144 0.06486106664 0.1826088578 1.880790849e-38
0.4611047506 0.06285904348 0.182590574 1.880790849e-38
0.461058557 0.06085742265 0.1825722754 1.880790849e-38
0.4610123932 0.05885620415 0.1825540066 1.880790849e-38
0.4609661996 0.05685538054 0.182535708 1.880790849e-38
0.4609200656 0.0548549667 0.1825174391 1.890010412e-38
0.4608739018 0.05285494775 0.1824991703 1.890010412e-38
0.4608277977 0.05085533112 0.1824809015 1.890010412e-38
0.4607816339 0.04885610938 0.1824626178 1.890010412e-38
0.4607355297 0.0468572937 0.1824443787 1.890010412e-38
0.4606894255 0.04485887289 0.1824261099 1.890010412e-38
0.4606433213 0.04286085814 0.182407856 1.890010412e-38
0.4605972171 0.040863242 0.1823896021 1.890010412e-38
0.4605511427 0.03886602446 0.1823713481 1.890010412e-38
0.4605050683 0.03686920553 0.1823531091 1.890010412e-38
0.4604590237 0.03487278521 0.1823348701 1.890010412e-38
0.4604129195 0.03287676349 0.1823166162 1.890010412e-38
0.4603669047 0.03088114597 0.1822983921 1.890010412e-38
0.4603208303 0.02888592519 0.182280153 1.890010412e-38
0.4602748156 0.02689110301 0.1822619289 1.890010412e-38
0.4602288306 0.02489668131 0.1822437197 1.890010412e-38
0.460182786 0.02290265448 0.1822254956 1.890010412e-38
0.460136801 0.02090902999 0.1822072864 1.890010412e-38
0.460090816 0.0189158041 0.1821890622 1.890010412e-38
0.460044831 0.01692297496 0.1821708679 1.890010412e-38
0.4599988461 0.01493054442 0.1821526587 1.890010412e-38
0.4599528909 0.01293851249 0.1821344495 1.890010412e-38
0.4599069655 0.01094687823 0.1821162701 1.890010412e-38
0.4598610103 0.008955642581 0.1820980608 1.890010412e-38
0.4598150849 0.006964803673 0.1820798814 1.890010412e-38
0.4597691298 0.004974362906 0.1820616871 1.890010412e-38
0.4597232342 0.002984320046 0.1820435226 1.890010412e-38
0.4596773088 0.0009946741629 0.1820253283 1.890010412e-38
0.4596314132 -0.0009945742786 0.1820071638 1.890010412e-38
0.4595855176 -0.002983425511 0.1819889843 1.890010412e-38
0.4595396519 -0.004971879534 0.1819708198 1.890010412e-38
0.4594938159 -0.006959937047 0.1819526553 1.890010412e-38
0.4594479501 -0.008947597817 0.1819345057 1.890010412e-38
0.4594020844 -0.01093486138 0.1819163412 1.890010412e-38
0.4593562484 -0.01292172819 0.1818981916 1.890010412e-38
0.4593104124 -0.0149081992 0.181880042 1.890010412e-38
0.4592645764 -0.01689427346 0.1818618923 1.890010412e-38
0.4592187703 -0.01887995005 0.1818437427 1.890010412e-38
0.4591729641 -0.02086523362 0.181825608 1.899229975e-38
0.4591271579 -0.02285011858 0.1818074733 1.899229975e-38
0.4590813518 -0.0248346068 0.1817893386 1.899229975e-38
0.4590356052 -0.02681870013 0.1817712188 1.899229975e-38
0.4589898288 -0.02880240232 0.181753099 1.899229975e-38
0.4589440823 -0.03078570403 0.1817349792 1.899229975e-38
0.4588983059 -0.03276861086 0.1817168593 1.899229975e-38
0.4588525891 -0.03475112095 0.1816987395 1.899229975e-38
0.4588068426 -0.03673323989 0.1816806346 1.899229975e-38
0.4587611258 -0.03871496394 0.1816625297 1.899229975e-38
0.458715409 -0.04069628939 0.1816444248 1.899229975e-38
0.4586697221 -0.04267722368 0.1816263348 1.899229975e-38
0.4586240053 -0.04465775937 0.1816082448 1.899229975e-38
0.4585783184 -0.04663790017 0.1815901399 1.899229975e-38
0.4585326612 -0.04861764982 0.1815720648 1.899229975e-38
0.4584869742 -0.05059700832 0.1815539747 1.899229975e-38
0.4584413171 -0.05257596076 0.1815358996 1.899229975e-38
0.4583956599 -0.05455453321 0.1815178096 1.899229975e-38
0.4583500326 -0.05653270334 0.1814997345 1.899229975e-38
0.4583043754 -0.05851048231 0.1814816743 1.899229975e-38
0.4582587481 -0.06048786268 0.1814635992 1.899229975e-38
0.4582131505 -0.06246485561 0.181445539 1.899229975e-38
0.4581675529 -0.06444144994 0.1814274937 1.899229975e-38
0.4581219554 -0.06641765684 0.1814094335 1.899229975e-38
0.4580763578 -0.06839346141 0.1813913733 1.899229975e-38
0.4580307901 -0.07036887854 0.181373328 1.899229975e-38
0.4579852223 -0.0723439008 0.1813552827 1.899229975e-38
0.4579396546 -0.07431852818 0.1813372374 1.899229975e-38
0.4578941166 -0.07629277557 0.181319207 1.899229975e-38
0.4578485489 -0.07826662064 0.1813011616 1.899229975e-38
0.4578029811 -0.08024006337 0.1812831163 1.899229975e-38
0.457757473 -0.08221312612 0.1812651008 1.899229975e-38
0.457711935 -0.084185794 0.1812470704 1.899229975e-38
0.4576664269 -0.08615806699 0.1812290549 1.899229975e-38
0.4576209486 -0.0881299451 0.1812110394 1.899229975e-38
0.4575754702 -0.09010144323 0.1811930239 1.899229975e-38
0.4575299919 -0.09207254648 0.1811750233 1.899229975e-38
0.4574845135 -0.0940432474 0.1811570227 1.899229975e-38
0.457439065 -0.09601356834 0.1811390072 1.899229975e-38
0.4573935866 -0.0979834944 0.1811210066 1.899229975e-38
0.4573481381 -0.09995302558 0.1811030209 1.899229975e-38
0.4573027194 -0.1019221619 0.1810850203 1.899229975e-38
0.4572573006 -0.1038909182 0.1810670495 1.899229975e-38
0.4572118819 -0.1058592722 0.1810490489 1.899229975e-38
0.4571664631 -0.1078272387 0.1810310781 1.899229975e-38
0.457121104 -0.1097948253 0.1810131073 1.899229975e-38
0.4570756853 -0.1117620096 0.1809951216 1.899229975e-38
0.4570303261 -0.1137288064 0.1809771657 1.899229975e-38
0.456984967 -0.1156952083 0.1809591949 1.899229975e-38
0.4569395781 -0.1176612228 0.1809412241 1.899229975e-38
0.4568942487 -0.1196268499 0.1809232831 1.899229975e-38
0.4568489194 -0.1215920895 0.1809053272 1.899229975e-38
0.4568035603 -0.1235569343 0.1808873713 1.899229975e-38
0.4567582309 -0.1255213767 0.1808694154 1.899229975e-38
0.4567129314 -0.1274854541 0.1808514744 1.899229975e-38
0.4566676319 -0.129449144 0.1808335334 1.899229975e-38
0.4566223025 -0.1314124167 0.1808155924 1.899229975e-38
0.456577003 -0.1333753169 0.1807976514 1.899229975e-38
0.4565317333 -0.1353378147 0.1807797253 1.899229975e-38
0.4564864635 -0.13729994 0.1807617992 1.899229975e-38
0.4564412236 -0.1392616779 0.180743888 1.899229975e-38
0.4563959539 -0.1412230134 0.1807259619 1.899229975e-38
0.456350714 -0.1431839615 0.1807080507 1.899229975e-38
0.456305474 -0.1451445222 0.1806901246 1.899229975e-38
0.4562602639 -0.1471046954 0.1806722283 1.899229975e-38
0.456215024 -0.1490644813 0.1806543171 1.899229975e-38
0.4561698139 -0.1510238796 0.1806364208 1.899229975e-38
0.4561246037 -0.1529828757 0.1806185097 1.899229975e-38
0.4560794234 -0.1549414992 0.1806006283 1.899229975e-38
0.4560342729 -0.1568997353 0.180582732 1.899229975e-38
0.4559890926 -0.158857584 0.1805648506 1.899229975e-38
0.4559439123 -0.1608150303 0.1805469543 1.899229975e-38
0.4558987617 -0.1627721041 0.1805290878 1.890010412e-38
0.455853641 -0.1647287905 0.1805112064 1.890010412e-38
0.4558084905 -0.1666850746 0.180493325 1.890010412e-38
0.45576334 -0.1686409861 0.1804754585 1.890010412e-38
0.4557182491 -0.1705965102 0.180457592 1.890010412e-38
0.4556731284 -0.1725516468 0.1804397255 1.890010412e-38
0.4556280077 -0.1745063812 0.1804218739 1.890010412e-38
0.4555829465 -0.1764607579 0.1804040223 1.890010412e-38
0.4555378258 -0.1784147173 0.1803861558 1.890010412e-38
0.4554927647 -0.1803682894 0.1803683043 1.890010412e-38
0.4554477036 -0.1823215038 0.1803504676 1.890010412e-38
0.4554026425 -0.1842743009 0.180332616 1.890010412e-38
0.4553575814 -0.1862267256 0.1803147793 1.890010412e-38
0.4553125501 -0.1881787628 0.1802969426 1.890010412e-38
0.4552675486 -0.1901304275 0.1802791208 1.890010412e-38
0.4552224576 -0.1920816749 0.1802612841 1.890010412e-38
0.4551774561 -0.1940325499 0.1802434474 1.890010412e-38
0.4551324844 -0.1959830523 0.1802256405 1.890010412e-38
0.4550874531 -0.1979331672 0.1802078187 1.890010412e-38
0.4550424814 -0.1998828799 0.1801900119 1.890010412e-38
0.4549975097 -0.20183222 0.180172205 1.890010412e-38
0.454952538 -0.2037811726 0.1801543832 1.890010412e-38
0.4549075961 -0.2057297528 0.1801365912 1.890010412e-38
0.4548626542 -0.2076779455 0.1801187992 1.890010412e-38
0.4548177123 -0.209625721 0.1801009923 1.890010412e-38
0.4547727406 -0.2115731388 0.1800832003 1.890010412e-38
0.4547278285 -0.2135201693 0.1800654083 1.890010412e-38
0.4546829164 -0.2154668272 0.1800476313 1.890010412e-38
0.4546380043 -0.2174130678 0.1800298393 1.890010412e-38
0.4545930922 -0.2193589509 0.1800120622 1.890010412e-38
0.4545482397 -0.2213044316 0.1799942851 1.890010412e-38
0.4545033574 -0.2232495397 0.1799765229 1.890010412e-38
0.4544584751 -0.2251942456 0.1799587458 1.890010412e-38
0.4544136226 -0.2271386087 0.1799409837 1.890010412e-38
0.4543687701 -0.2290825546 0.1799232215 1.890010412e-38
0.4543239176 -0.2310261279 0.1799054742 1.890010412e-38
0.4542790949 -0.2329693288 0.179887712 1.890010412e-38
0.4542342722 -0.2349121273 0.1798699647 1.890010412e-38
0.4541894495 -0.2368545532 0.1798522174 1.890010412e-38
0.4541446269 -0.2387965769 0.1798344702 1.890010412e-38
0.4540998638 -0.2407382429 0.1798167676 1.890010412e-38
0.4540550411 -0.2426794916 0.1797990203 1.890010412e-38
0.454010278 -0.2446203977 0.1797812879 1.890010412e-38
0.4539654851 -0.2465608865 0.1797635555 1.890010412e-38
0.453920722 -0.2485010326 0.179745838 1.880790849e-38
0.4538759887 -0.2504407465 0.1797281206 1.880790849e-38
0.4538312256 -0.2523801327 0.1797104031 1.880790849e-38
0.4537864923 -0.2543190718 0.1796926707 1.880790849e-38
0.4537417889 -0.256257683 0.1796749681 1.880790849e-38
0.4536970556 -0.2581959069 0.1796572655 1.880790849e-38
0.4536523521 -0.2601337433 0.179639563 1.880790849e-38
0.4536076188 -0.2620711625 0.1796218455 1.880790849e-38
0.4535629451 -0.2640082538 0.1796041578 1.880790849e-38
0.4535182714 -0.2659448981 0.1795864701 1.880790849e-38
0.453473568 -0.2678812146 0.1795687675 1.880790849e-38
0.4534289241 -0.2698171437 0.1795510948 1.880790849e-38
0.4533842504 -0.2717526853 0.1795333922 1.880790849e-38
0.4533396065 -0.2736878395 0.1795157194 1.880790849e-38
0.4532949924 -0.2756226361 0.1794980466 1.880790849e-38
0.4532503188 -0.2775570154 0.179480359 1.880790849e-38
0.4532057047 -0.2794910371 0.1794627011 1.880790849e-38
0.4531610906 -0.2814246714 0.1794450283 1.880790849e-38
0.4531164765 -0.2833578885 0.1794273704 1.880790849e-38
0.4530718923 -0.2852908075 0.1794097126 1.880790849e-38
0.453027308 -0.2872232795 0.1793920547 1.880790849e-38
0.4529827237 -0.2891553938 0.1793743968 1.880790849e-38
0.4529381692 -0.2910871208 0.1793567538 1.880790849e-38
0.452893585 -0.2930184901 0.179339096 1.880790849e-38
0.4528490305 -0.2949494421 0.1793214679 1.880790849e-38
0.452804476 -0.2968800366 0.1793038249 1.880790849e-38
0.4527599812 -0.2988102436 0.1792861968 1.880790849e-38
0.4527154267 -0.3007400632 0.1792685539 1.880790849e-38
0.452670902 -0.3026695251 0.1792509258 1.880790849e-38
0.4526263773 -0.3045985997 0.1792332977 1.880790849e-38
0.4525818825 -0.3065272868 0.1792156696 1.880790849e-38
0.4525373876 -0.3084555864 0.1791980416 1.880790849e-38
0.4524929225 -0.3103835285 0.1791804433 1.880790849e-38
0.4524484277 -0.3123110831 0.1791628301 1.880790849e-38
0.4687139988 0.3235386908 0.1835752726 1.871571286e-38
0.4686662555 0.3214775026 0.1835565716 1.871571286e-38
0.4686185718 0.3194167316 0.1835378855 1.871571286e-38
0.4685708582 0.3173563778 0.1835192144 1.871571286e-38
0.4685231745 0.3152964711 0.1835005283 1.871571286e-38
0.468475461 0.313236922 0.1834818423 1.871571286e-38
0.4684278071 0.3111778498 0.1834631711 1.871571286e-38
0.4683801234 0.3091191649 0.1834445149 1.871571286e-38
0.4683324993 0.3070609272 0.1834258586 1.871571286e-38
0.4682848752 0.3050031066 0.1834072024 1.871571286e-38
0.468237251 0.3029457033 0.1833885461 1.871571286e-38
0.4681895971 0.3008886874 0.1833698899 1.871571286e-38
0.4681420028 0.2988321185 0.1833512485 1.871571286e-38
0.4680943787 0.2967759371 0.1833325922 1.871571286e-38
0.4680468142 0.2947202027 0.1833139509 1.871571286e-38
0.4679991901 0.2926648557 0.1832953095 1.871571286e-38
0.4679516256 0.2906099856 0.1832766831 1.843912597e-38
0.4679040611 0.2885554731 0.1832580566 1.807034345e-38
0.4678565264 0.2865014076 0.1832394302 1.76093653e-38
0.4678089619 0.2844477296 0.1832208037 1.724058278e-38
0.4677614272 0.2823945284 0.1832021922 1.677960464e-38
0.4677138925 0.2803416848 0.1831835657 1.631862649e-38
0.4676663876 0.2782892883 0.1831649691 1.585764834e-38
0.4676188827 0.276237309 0.1831463575 1.539667019e-38
0.4675713778 0.2741857171 0.1831277609 1.484349641e-38
0.4675239027 0.2721345723 0.1831091493 1.438251826e-38
0.4674764276 0.2700838447 0.1830905676 1.382934448e-38
0.4674289525 0.2680335343 0.1830719709 1.318397507e-38
0.4673815072 0.2659836113 0.1830533892 1.263080129e-38
0.4673340321 0.2639341354 0.1830347925 1.189323625e-38
0.4672866166 0.261885047 0.1830162257 1.124786684e-38
0.4672391713 0.2598364055 0.1829976439 1.124786684e-38
0.4671917558 0.2577881813 0.1829790771 1.180104062e-38
0.4671443701 0.2557403743 0.1829605103 1.244641003e-38
0.4670969546 0.2536929548 0.1829419434 1.336836633e-38
0.4670495391 0.2516459525 0.1829233617 1.438251826e-38
0.4670021534 0.2495993525 0.1829048097 1.530447456e-38
0.4669547975 0.2475532144 0.1828862578 1.622643086e-38
0.4669074118 0.2455074489 0.1828677058 1.696399589e-38
0.4668600857 0.2434621304 0.1828491688 1.779375656e-38
0.4668127 0.2414171994 0.1828306168 1.843912597e-38
0.4667654037 0.2393727154 0.1828120798 1.871571286e-38
0.4667180479 0.2373286188 0.1827935427 1.871571286e-38
0.4666707516 0.2352849394 0.1827750206 1.871571286e-38
0.4666234553 0.2332416922 0.1827564836 1.871571286e-38
0.466576159 0.2311988324 0.1827379614 1.871571286e-38
0.4665288627 0.2291564196 0.1827194393 1.871571286e-38
0.4664815962 0.2271143943 0.182700932 1.871571286e-38
0.4664343297 0.2250728011 0.1826824248 1.871571286e-38
0.4663870633 0.2230315953 0.1826639026 1.871571286e-38
0.4663398266 0.2209908366 0.1826453954 1.871571286e-38
0.4662925899 0.2189504504 0.1826269031 1.871571286e-38
0.466245383 0.2169105262 0.1826084107 1.871571286e-38
0.4661981165 0.2148709744 0.1825899035 1.871571286e-38
0.4661509097 0.2128318697 0.182571426 1.871571286e-38
0.4661037028 0.2107931376 0.1825529337 1.871571286e-38
0.4660565555 0.2087548524 0.1825344563 1.871571286e-38
0.4660093784 0.2067169696 0.1825159788 1.871571286e-38
0.4659622014 0.204679504 0.1824975014 1.871571286e-38
0.4659150243 0.2026424408 0.1824790239 1.871571286e-38
0.465867877 0.2006057948 0.1824605614 1.871571286e-38
0.4658207297 0.198569566 0.1824420989 1.871571286e-38
0.4657735825 0.1965337396 0.1824236363 1.871571286e-38
0.4657264948 0.1944983304 0.1824051887 1.871571286e-38
0.4656793773 0.1924633384 0.182386741 1.871571286e-38
0.4656322598 0.1904287487 0.1823682785 1.871571286e-38
0.4655851722 0.1883945614 0.1823498309 1.871571286e-38
0.4655380845 0.1863608062 0.1823313981 1.871571286e-38
0.4654909968 0.1843274534 0.1823129654 1.871571286e-38
0.465443939 0.1822945029 0.1822945178 1.871571286e-38
0.4653968811 0.1802619845 0.1822760999 1.871571286e-38
0.465349853 0.1782298684 0.1822576672 1.871571286e-38
0.4653027952 0.1761981547 0.1822392493 1.871571286e-38
0.4652557969 0.1741668731 0.1822208315 1.871571286e-38
0.465208739 0.172135964 0.1822024137 1.871571286e-38
0.4651617408 0.1701054871 0.1821839958 1.880790849e-38
0.4651147723 0.1680754274 0.1821656078 1.880790849e-38
0.4650677443 0.1660457551 0.18214719 1.880790849e-38
0.4650207758 0.164016515 0.182128787 1.880790849e-38
0.4649738073 0.1619876772 0.1821103841 1.880790849e-38
0.4649268687 0.1599592566 0.182092011 1.880790849e-38
0.4648799002 0.1579312384 0.1820736229 1.880790849e-38
0.4648329616 0.1559036374 0.1820552349 1.880790849e-38
0.4647860229 0.1538764387 0.1820368469 1.880790849e-38
0.464739114 0.1518496573 0.1820184737 1.880790849e-38
0.4646922052 0.1498232782 0.1820001006 1.880790849e-38
0.4646452963 0.1477973014 0.1819817275 1.880790849e-38
0.4645984173 0.1457717419 0.1819633693 1.880790849e-38
0.4645515084 0.1437465847 0.1819449961 1.880790849e-38
0.4645046592 0.1417218447 0.1819266379 1.880790849e-38
0.4644577801 0.139697507 0.1819082797 1.880790849e-38
0.4644109309 0.1376735866 0.1818899363 1.880790849e-38
0.4643640816 0.1356500685 0.181871593 1.880790849e-38
0.4643172324 0.1336269528 0.1818532348 1.880790849e-38
0.4642703831 0.1316042542 0.1818348914 1.880790849e-38
0.4642235637 0.1295819581 0.181816563 1.880790849e-38
0.4641767442 0.1275600791 0.1817982197 1.880790849e-38
0.4641299844 0.1255385876 0.1817799062 1.880790849e-38
0.4640831649 0.1235175133 0.1817615628 1.880790849e-38
0.4640363753 0.1214968488 0.1817432493 1.880790849e-38
0.4639896452 0.1194766015 0.1817249358 1.880790849e-38
0.4639428556 0.1174567491 0.1817066073 1.880790849e-38
0.4638960958 0.1154373065 0.1816883087 1.880790849e-38
0.4638493359 0.1134182662 0.1816699803 1.880790849e-38
0.4638026059 0.1113996431 0.1816516817 1.880790849e-38
0.4637558758 0.1093814149 0.181633383 1.880790849e-38
0.4637091458 0.107363604 0.1816150844 1.880790849e-38
0.4636624753 0.1053462029 0.1815968007 1.880790849e-38
0.4636157453 0.1033291966 0.1815785021 1.880790849e-38
0.4635690749 0.1013126001 0.1815602183 1.880790849e-38
0.4635223746 0.09929641336 0.1815419346 1.880790849e-38
0.463475734 0.09728062898 0.1815236658 1.880790849e-38
0.4634290636 0.09526524693 0.1815053821 1.880790849e-38
0.4633823931 0.09325027466 0.1814871132 1.880790849e-38
0.4633357823 0.09123571217 0.1814688444 1.880790849e-38
0.4632891417 0.08922154456 0.1814505756 1.880790849e-38
0.4632425308 0.08720779419 0.1814323217 1.880790849e-38
0.4631958902 0.08519444615 0.1814140677 1.880790849e-38
0.4631493092 0.08318150043 0.1813958138 1.880790849e-38
0.4631026983 0.08116895705 0.1813775599 1.880790849e-38
0.4630561173 0.07915682346 0.1813593209 1.880790849e-38
0.4630095661 0.07714509964 0.1813410819 1.880790849e-38
0.462962985 0.0751337707 0.1813228428 1.880790849e-38
0.4629164338 0.0731228441 0.1813046038 1.880790849e-38
0.4628698826 0.07111232728 0.1812863797 1.880790849e-38
0.4628233612 0.06910222024 0.1812681556 1.880790849e-38
0.4627768099 0.06709250808 0.1812499315 1.880790849e-38
0.4627302885 0.0650832057 0.1812317073 1.880790849e-38
0.4626837969 0.06307430565 0.1812134981 1.880790849e-38
0.4626372755 0.06106580794 0.181195274 1.880790849e-38
0.4625908136 0.05905771628 0.1811770797 1.880790849e-38
0.462544322 0.05705002695 0.1811588705 1.880790849e-38
0.4624978602 0.05504274368 0.1811406761 1.890010412e-38
0.4624513686 0.05303585902 0.1811224669 1.890010412e-38
0.4624049366 0.05102937669 0.1811042726 1.890010412e-38
0.4623585045 0.04902330413 0.1810860932 1.890010412e-38
0.4623120427 0.04701762646 0.1810678989 1.890010412e-38
0.4622656405 0.04501235485 0.1810497195 1.890010412e-38
0.4622192085 0.04300748929 0.18103154 1.890010412e-38
0.4621728361 0.04100302607 0.1810133755 1.890010412e-38
0.462126404 0.03899896145 0.1809951812 1.890010412e-38
0.4620800316 0.03699529916 0.1809770167 1.890010412e-38
0.4620336592 0.03499204293 0.1809588671 1.890010412e-38
0.461987257 0.03298918158 0.1809406877 1.890010412e-38
0.4619408846 0.03098673001 0.1809225231 1.890010412e-38
0.461894542 0.02898467705 0.1809043735 1.890010412e-38
0.4618481994 0.02698302828 0.1808862388 1.890010412e-38
0.4618018568 0.02498177625 0.1808680743 1.890010412e-38
0.4617555439 0.02298092842 0.1808499396 1.890010412e-38
0.4617092609 0.02098048478 0.1808318049 1.890010412e-38
0.4616629183 0.01898043789 0.1808136553 1.890010412e-38
0.4616166353 0.01698079333 0.1807955354 1.890010412e-38
0.4615703523 0.01498155203 0.1807774007 1.890010412e-38
0.4615240693 0.01298270933 0.1807592809 1.890010412e-38
0.4614778161 0.01098426804 0.1807411611 1.890010412e-38
0.4614315331 0.008986228146 0.1807230413 1.890010412e-38
0.4613852799 0.006988587789 0.1807049215 1.890010412e-38
0.4613390565 0.004991348367 0.1806868166 1.890010412e-38
0.4612928331 0.002994509181 0.1806687117 1.890010412e-38
0.4612466097 0.0009980698815 0.1806506068 1.890010412e-38
0.4612003863 -0.0009979692986 0.1806325167 1.890010412e-38
0.4611541927 -0.002993608592 0.1806144118 1.890010412e-38
0.4611080289 -0.004988848232 0.1805963218 1.890010412e-38
0.4610618353 -0.006983687636 0.1805782318 1.890010412e-38
0.4610156417 -0.008978127502 0.1805601418 1.890010412e-38
0.4609694779 -0.01097216923 0.1805420667 1.890010412e-38
0.4609233141 -0.01296580955 0.1805239916 1.890010412e-38
0.4608771801 -0.01495905314 0.1805059314 1.890010412e-38
0.4608310461 -0.01695189625 0.1804878414 1.890010412e-38
0.4607849121 -0.01894433983 0.1804697812 1.899229975e-38
0.4607387781 -0.0209363848 0.180451721 1.899229975e-38
0.4606927037 -0.02292803302 0.1804336607 1.899229975e-38
0.4606465995 -0.02491928078 0.1804156154 1.899229975e-38
0.4606004953 -0.02691012993 0.1803975552 1.899229975e-38
0.4605544209 -0.02890058234 0.1803795099 1.899229975e-38
0.4605083466 -0.03089063615 0.1803614646 1.899229975e-38
0.460462302 -0.03288029134 0.1803434342 1.899229975e-38
0.4604162276 -0.03486954793 0.1803253889 1.899229975e-38
0.460370183 -0.03685840219 0.1803073436 1.899229975e-38
0.4603241384 -0.03884686902 0.1802893281 1.899229975e-38
0.4602781236 -0.04083492979 0.1802712977 1.899229975e-38
0.4602321088 -0.04282259569 0.1802532673 1.899229975e-38
0.460186094 -0.0448098667 0.1802352518 1.899229975e-38
0.4601401091 -0.04679673538 0.1802172363 1.899229975e-38
0.4600941241 -0.04878320917 0.1801992208 1.899229975e-38
0.4600481093 -0.05076928809 0.1801812202 1.899229975e-38
0.4600021541 -0.05275496468 0.1801632196 1.899229975e-38
0.4599561989 -0.05474025384 0.1801452041 1.899229975e-38
0.4599102437 -0.05672514066 0.1801272035 1.899229975e-38
0.4598643184 -0.05870963261 0.1801092178 1.899229975e-38
0.4598183632 -0.06069372222 0.1800912172 1.899229975e-38
0.459772408 -0.06267742068 0.1800732315 1.899229975e-38
0.4597265124 -0.06466072053 0.1800552607 1.899229975e-38
0.4596805871 -0.0666436255 0.180037275 1.899229975e-38
0.4596346915 -0.06862613559 0.1800192893 1.899229975e-38
0.4595888257 -0.0706082508 0.1800013334 1.899229975e-38
0.4595429301 -0.07258996367 0.1799833626 1.899229975e-38
0.4594970942 -0.07457128912 0.1799653918 1.899229975e-38
0.4594512284 -0.07655221969 0.1799474359 1.899229975e-38
0.4594053626 -0.07853274792 0.1799294651 1.899229975e-38
0.4593594968 -0.08051288128 0.1799115092 1.899229975e-38
0.4593136609 -0.08249261975 0.1798935533 1.899229975e-38
0.4592678249 -0.08447196335 0.1798756123 1.899229975e-38
0.4592219889 -0.08645091206 0.1798576564 1.899229975e-38
0.4591762125 -0.08842946589 0.1798397154 1.899229975e-38
0.4591304064 -0.09040762484 0.1798217893 1.899229975e-38
0.4590846002 -0.09238538891 0.1798038483 1.899229975e-38
0.4590388536 -0.09436276555 0.1797859222 1.899229975e-38
0.4589930773 -0.09633974731 0.1797679961 1.899229975e-38
