# .PCD v0.7 - Point Cloud Data file format
VERSION 0.7
FIELDS x y z rgb
SIZE 4 4 4 4
TYPE F F F F
COUNT 1 1 1 1
WIDTH 173
HEIGHT 1
VIEWPOINT 0 0 0 1 0 0 0
POINTS 173
DATA ascii
0.0549999997 0.03500000015 0.01499999966 0
0.06499999762 0.02500000037 0.01499999966 0
0.06499999762 0.03500000015 0.01499999966 0
0.0549999997 0.02500000037 0.02500000037 0
0.0549999997 0.03500000015 0.02500000037 0
0.0549999997 0.02500000037 0.03500000015 0
0.04500000179 0.03500000015 0.03500000015 0
0.0549999997 0.03500000015 0.03500000015 0
0.03500000015 0.0549999997 0.01499999966 0
0.004999999888 0.06499999762 0.01499999966 0
0.004999999888 0.07500000298 0.01499999966 0
0.01499999966 0.07500000298 0.01499999966 0
0.02500000037 0.06499999762 0.01499999966 0
0.03500000015 0.06499999762 0.01499999966 0
0.02500000037 0.07500000298 0.01499999966 0
0.03500000015 0.0549999997 0.02500000037 0
0.03500000015 0.0549999997 0.03500000015 0
0.004999999888 0.06499999762 0.02500000037 0
0.004999999888 0.07500000298 0.02500000037 0
0.01499999966 0.07500000298 0.02500000037 0
0.004999999888 0.07500000298 0.03500000015 0
0.01499999966 0.07500000298 0.03500000015 0
0.02500000037 0.06499999762 0.02500000037 0
0.03500000015 0.06499999762 0.02500000037 0
0.02500000037 0.07500000298 0.02500000037 0
0.02500000037 0.06499999762 0.03500000015 0
0.03500000015 0.06499999762 0.03500000015 0
0.02500000037 0.07500000298 0.03500000015 0
0.04500000179 0.04500000179 0.01499999966 0
0.0549999997 0.04500000179 0.01499999966 0
0.04500000179 0.0549999997 0.01499999966 0
0.04500000179 0.04500000179 0.02500000037 0
0.0549999997 0.04500000179 0.02500000037 0
0.04500000179 0.0549999997 0.02500000037 0
0.04500000179 0.04500000179 0.03500000015 0
0.04500000179 0.0549999997 0.03500000015 0
0.03500000015 0.04500000179 0.04500000179 0
0.02500000037 0.0549999997 0.04500000179 0
0.03500000015 0.0549999997 0.04500000179 0
0.01499999966 0.06499999762 0.04500000179 0
0.01499999966 0.07500000298 0.04500000179 0
0.01499999966 0.06499999762 0.0549999997 0
0.01499999966 0.07500000298 0.0549999997 0
0.02500000037 0.06499999762 0.04500000179 0
0.02500000037 0.07500000298 0.04500000179 0
0.02500000037 0.06499999762 0.0549999997 0
0.04500000179 0.04500000179 0.04500000179 0
0.174999997 0.174999997 0.01499999966 0
0.1949999928 0.174999997 0.01499999966 0
0.174999997 0.1850000024 0.01499999966 0
0.174999997 0.1949999928 0.01499999966 0
0.174999997 0.174999997 0.02500000037 0
0.174999997 0.174999997 0.03500000015 0
0.1949999928 0.174999997 0.02500000037 0
0.1850000024 0.174999997 0.03500000015 0
0.1949999928 0.174999997 0.03500000015 0
0.174999997 0.1850000024 0.02500000037 0
0.174999997 0.1949999928 0.02500000037 0
0.174999997 0.1949999928 0.03500000015 0
0.2049999982 0.174999997 0.01499999966 0
0.2150000036 0.174999997 0.01499999966 0
0.224999994 0.174999997 0.01499999966 0
0.224999994 0.1850000024 0.01499999966 0
0.224999994 0.1949999928 0.01499999966 0
0.2049999982 0.174999997 0.02500000037 0
0.2150000036 0.174999997 0.02500000037 0
0.2049999982 0.174999997 0.03500000015 0
0.2150000036 0.174999997 0.03500000015 0
0.224999994 0.174999997 0.02500000037 0
0.224999994 0.174999997 0.03500000015 0
0.224999994 0.1850000024 0.02500000037 0
0.224999994 0.1949999928 0.02500000037 0
0.224999994 0.1850000024 0.03500000015 0
0.224999994 0.1949999928 0.03500000015 0
0.174999997 0.2049999982 0.01499999966 0
0.174999997 0.2150000036 0.01499999966 0
0.174999997 0.224999994 0.01499999966 0
0.1850000024 0.224999994 0.01499999966 0
0.1949999928 0.224999994 0.01499999966 0
0.174999997 0.2049999982 0.02500000037 0
0.174999997 0.2150000036 0.02500000037 0
0.174999997 0.2049999982 0.03500000015 0
0.174999997 0.2150000036 0.03500000015 0
0.174999997 0.224999994 0.02500000037 0
0.174999997 0.224999994 0.03500000015 0
0.1850000024 0.224999994 0.02500000037 0
0.1949999928 0.224999994 0.02500000037 0
0.1850000024 0.224999994 0.03500000015 0
0.1949999928 0.224999994 0.03500000015 0
0.224999994 0.2049999982 0.01499999966 0
0.224999994 0.2150000036 0.01499999966 0
0.2049999982 0.224999994 0.01499999966 0
0.2150000036 0.224999994 0.01499999966 0
0.224999994 0.224999994 0.01499999966 0
0.224999994 0.2049999982 0.02500000037 0
0.224999994 0.2150000036 0.02500000037 0
0.224999994 0.2049999982 0.03500000015 0
0.224999994 0.2150000036 0.03500000015 0
0.2049999982 0.224999994 0.02500000037 0
0.2150000036 0.224999994 0.02500000037 0
0.2049999982 0.224999994 0.03500000015 0
0.2150000036 0.224999994 0.03500000015 0
0.224999994 0.224999994 0.02500000037 0
0.224999994 0.224999994 0.03500000015 0
0.174999997 0.174999997 0.04500000179 0
0.1850000024 0.174999997 0.04500000179 0
0.1949999928 0.174999997 0.04500000179 0
0.1850000024 0.174999997 0.0549999997 0
0.1949999928 0.174999997 0.0549999997 0
0.174999997 0.1850000024 0.04500000179 0
0.174999997 0.1949999928 0.04500000179 0
0.174999997 0.1850000024 0.0549999997 0
0.174999997 0.1949999928 0.0549999997 0
0.1850000024 0.1850000024 0.04500000179 0
0.1949999928 0.1850000024 0.04500000179 0
0.1850000024 0.1949999928 0.04500000179 0
0.1949999928 0.1949999928 0.04500000179 0
0.1850000024 0.1850000024 0.0549999997 0
0.1949999928 0.1850000024 0.0549999997 0
0.1850000024 0.1949999928 0.0549999997 0
0.1949999928 0.1949999928 0.0549999997 0
0.2049999982 0.174999997 0.04500000179 0
0.2150000036 0.174999997 0.04500000179 0
0.2049999982 0.174999997 0.0549999997 0
0.2150000036 0.174999997 0.0549999997 0
0.224999994 0.174999997 0.04500000179 0
0.224999994 0.174999997 0.0549999997 0
0.2049999982 0.1850000024 0.04500000179 0
0.2150000036 0.1850000024 0.04500000179 0
0.2049999982 0.1949999928 0.04500000179 0
0.2150000036 0.1949999928 0.04500000179 0
0.2049999982 0.1850000024 0.0549999997 0
0.2150000036 0.1850000024 0.0549999997 0
0.2049999982 0.1949999928 0.0549999997 0
0.2150000036 0.1949999928 0.0549999997 0
0.224999994 0.1850000024 0.04500000179 0
0.224999994 0.1949999928 0.04500000179 0
0.224999994 0.1850000024 0.0549999997 0
0.224999994 0.1949999928 0.0549999997 0
0.174999997 0.2150000036 0.04500000179 0
0.174999997 0.2049999982 0.0549999997 0
0.174999997 0.2150000036 0.0549999997 0
0.1850000024 0.2049999982 0.04500000179 0
0.1949999928 0.2049999982 0.04500000179 0
0.1850000024 0.2150000036 0.04500000179 0
0.1949999928 0.2150000036 0.04500000179 0
0.1850000024 0.2049999982 0.0549999997 0
0.1949999928 0.2049999982 0.0549999997 0
0.1850000024 0.2150000036 0.0549999997 0
0.1949999928 0.2150000036 0.0549999997 0
0.174999997 0.224999994 0.04500000179 0
0.174999997 0.224999994 0.0549999997 0
0.1850000024 0.224999994 0.04500000179 0
0.1949999928 0.224999994 0.04500000179 0
0.1850000024 0.224999994 0.0549999997 0
0.1949999928 0.224999994 0.0549999997 0
0.2049999982 0.2049999982 0.04500000179 0
0.2150000036 0.2049999982 0.04500000179 0
0.2049999982 0.2150000036 0.04500000179 0
0.2150000036 0.2150000036 0.04500000179 0
0.2049999982 0.2049999982 0.0549999997 0
0.2150000036 0.2049999982 0.0549999997 0
0.2049999982 0.2150000036 0.0549999997 0
0.2150000036 0.2150000036 0.0549999997 0
0.224999994 0.2049999982 0.04500000179 0
0.224999994 0.2150000036 0.04500000179 0
0.224999994 0.2049999982 0.0549999997 0
0.224999994 0.2150000036 0.0549999997 0
0.2049999982 0.224999994 0.04500000179 0
0.2049999982 0.224999994 0.0549999997 0
0.2150000036 0.224999994 0.0549999997 0
0.224999994 0.224999994 0.04500000179 0
0.224999994 0.224999994 0.0549999997 0
