# .PCD v0.7 - Point Cloud Data file format
VERSION 0.7
FIELDS x y z rgb
SIZE 4 4 4 4
TYPE F F F F
COUNT 1 1 1 1
WIDTH 861
HEIGHT 1
VIEWPOINT 0 0 0 1 0 0 0
POINTS 861
DATA ascii
0.3994722664 -0.2394386083 0.1772018969 1.890010412e-38
0.3994279802 -0.2411406785 0.1771822572 1.890010412e-38
0.3993836939 -0.2428423315 0.1771626025 1.890010412e-38
0.3993394375 -0.2445436567 0.1771429777 1.890010412e-38
0.3992951512 -0.2462445647 0.1771233231 1.890010412e-38
0.3992508948 -0.247945115 0.1771036983 1.890010412e-38
0.3992066383 -0.2496452779 0.1770840585 1.890010412e-38
0.3991623819 -0.2513450682 0.1770644337 1.890010412e-38
0.3991181552 -0.253044486 0.1770448089 1.890010412e-38
0.3990739584 -0.2547435462 0.1770252138 1.890010412e-38
0.3990297318 -0.2564421892 0.177005589 1.890010412e-38
0.3989855349 -0.2581404746 0.176985994 1.890010412e-38
0.3989413381 -0.2598384023 0.1769663841 1.890010412e-38
0.398897171 -0.2615359128 0.176946789 1.890010412e-38
0.398853004 -0.2632330954 0.176927194 1.890010412e-38
0.3988088369 -0.2649298608 0.1769076139 1.890010412e-38
0.3987646997 -0.2666262686 0.1768880188 1.890010412e-38
0.3987205625 -0.2683223188 0.1768684536 1.890010412e-38
0.3986763954 -0.2700179517 0.1768488586 1.890010412e-38
0.3986323178 -0.2717132568 0.1768293083 1.890010412e-38
0.3985881805 -0.2734081447 0.1768097281 1.890010412e-38
0.3985441029 -0.275102675 0.1767901778 1.890010412e-38
0.4144994915 0.286116153 0.1820739359 1.871571286e-38
0.4144518077 0.2842895985 0.1820529848 1.871571286e-38
0.4144040942 0.2824634612 0.1820320338 1.871571286e-38
0.4143564403 0.2806377411 0.1820110977 1.871571286e-38
0.4143088162 0.2788124979 0.1819901764 1.871571286e-38
0.4142611325 0.2769876122 0.1819692254 1.871571286e-38
0.4142135084 0.2751631737 0.1819483042 1.871571286e-38
0.4141658843 0.2733391225 0.1819273829 1.871571286e-38
0.4141182601 0.2715155482 0.1819064766 1.871571286e-38
0.4140706658 0.2696923614 0.1818855703 1.871571286e-38
0.4140230715 0.2678695917 0.181864664 1.871571286e-38
0.4139754772 0.2660472095 0.1818437427 1.871571286e-38
0.4139279425 0.2642253339 0.1818228662 1.871571286e-38
0.4138803482 0.2624037862 0.1818019599 1.871571286e-38
0.4138328135 0.2605827153 0.1817810833 1.871571286e-38
0.4137852788 0.2587620318 0.1817601919 1.871571286e-38
0.4137377739 0.2569417953 0.1817393303 1.871571286e-38
0.4136902094 0.2551219165 0.1817184389 1.871571286e-38
0.4136427343 0.2533025444 0.1816975921 1.871571286e-38
0.4135952294 0.2514835 0.1816767156 1.871571286e-38
0.4135477543 0.2496649474 0.1816558689 1.871571286e-38
0.4135002494 0.2478467524 0.1816350073 1.871571286e-38
0.4134527743 0.2460289896 0.1816141456 1.871571286e-38
0.4134053588 0.2442116737 0.1815933138 1.871571286e-38
0.4133579135 0.2423947453 0.181572482 1.871571286e-38
0.4133104682 0.240578264 0.1815516353 1.871571286e-38
0.4132630825 0.2387621701 0.1815308183 1.871571286e-38
0.413215667 0.2369465232 0.1815100014 1.871571286e-38
0.4131682217 0.2351312488 0.1814891547 1.871571286e-38
0.4131208658 0.2333164364 0.1814683527 1.871571286e-38
0.4130734801 0.2315020114 0.1814475507 1.871571286e-38
0.413026154 0.2296880335 0.1814267486 1.871571286e-38
0.4129787982 0.227874428 0.1814059466 1.871571286e-38
0.4129314423 0.2260612696 0.1813851446 1.871571286e-38
0.4128841162 0.2242485136 0.1813643575 1.871571286e-38
0.4128367603 0.2224361748 0.1813435555 1.871571286e-38
0.412789464 0.2206242383 0.1813227832 1.871571286e-38
0.4127421975 0.2188127637 0.181302011 1.871571286e-38
0.4126949012 0.2170016468 0.1812812388 1.871571286e-38
0.4126475751 0.2151909769 0.1812604517 1.871571286e-38
0.4126003385 0.2133807093 0.1812397093 1.871571286e-38
0.4125531018 0.2115708888 0.1812189519 1.871571286e-38
0.4125058651 0.2097614408 0.1811982095 1.871571286e-38
0.4124585986 0.2079523951 0.1811774373 1.871571286e-38
0.4124113917 0.2061438113 0.1811567098 1.871571286e-38
0.4123641849 0.204335615 0.1811359674 1.871571286e-38
0.412316978 0.2025278509 0.181115225 1.871571286e-38
0.4122697711 0.2007204741 0.1810944974 1.871571286e-38
0.412222594 0.1989135295 0.1810737699 1.871571286e-38
0.4121754467 0.1971070021 0.1810530722 1.871571286e-38
0.4121282697 0.195300892 0.1810323447 1.871571286e-38
0.4120811224 0.1934951693 0.1810116321 1.871571286e-38
0.4120340049 0.1916898787 0.1809909344 1.871571286e-38
0.4119868875 0.1898850054 0.1809702367 1.871571286e-38
0.4119397402 0.1880805343 0.180949524 1.871571286e-38
0.4118926227 0.1862764657 0.1809288412 1.871571286e-38
0.4118455648 0.1844728291 0.1809081584 1.871571286e-38
0.4117984474 0.18266958 0.1808874607 1.871571286e-38
0.4117513895 0.180866763 0.1808667928 1.871571286e-38
0.4117043316 0.1790643632 0.1808461249 1.871571286e-38
0.4116573036 0.1772623807 0.180825457 1.871571286e-38
0.4116102159 0.1754607707 0.1808047742 1.871571286e-38
0.4115632176 0.1736596078 0.1807841361 1.871571286e-38
0.4115161896 0.171858862 0.180763483 1.871571286e-38
0.4114691913 0.1700585037 0.18074283 1.871571286e-38
0.4114221632 0.1682585627 0.180722177 1.871571286e-38
0.4113751948 0.1664590389 0.1807015389 1.871571286e-38
0.4113282263 0.1646599323 0.1806809157 1.871571286e-38
0.4112812281 0.1628612131 0.1806602776 1.871571286e-38
0.4112342894 0.1610629261 0.1806396544 1.871571286e-38
0.4111873507 0.1592650414 0.1806190312 1.871571286e-38
0.4111404419 0.1574675739 0.1805984229 1.871571286e-38
0.4110935032 0.1556705087 0.1805777997 1.871571286e-38
0.4110465944 0.1538738608 0.1805571914 1.871571286e-38
0.4109997153 0.1520776153 0.180536598 1.871571286e-38
0.4109528363 0.1502817869 0.1805160195 1.871571286e-38
0.4109059274 0.148486346 0.1804954112 1.871571286e-38
0.4108590782 0.1466913372 0.1804748327 1.871571286e-38
0.4108122289 0.1448967457 0.1804542542 1.871571286e-38
0.4107653499 0.1431025416 0.1804336607 1.871571286e-38
0.4107185006 0.1413087547 0.1804130822 1.871571286e-38
0.4106716812 0.139515385 0.1803925186 1.871571286e-38
0.4106248617 0.1377224177 0.180371955 1.871571286e-38
0.4105780423 0.1359298527 0.1803513914 1.871571286e-38
0.4105312824 0.134137705 0.1803308427 1.871571286e-38
0.4104844928 0.1323459595 0.180310294 1.871571286e-38
0.4104377329 0.1305546463 0.1802897602 1.871571286e-38
0.4103909731 0.1287637055 0.1802692115 1.871571286e-38
0.4103442132 0.1269731969 0.1802486777 1.871571286e-38
0.4102974832 0.1251830757 0.1802281439 1.871571286e-38
0.4102507234 0.1233933717 0.1802076101 1.871571286e-38
0.4102039933 0.121604085 0.1801870912 1.871571286e-38
0.4101573229 0.1198152006 0.1801665723 1.871571286e-38
0.4101106226 0.1180267185 0.1801460534 1.871571286e-38
0.4100639224 0.1162386537 0.1801255494 1.871571286e-38
0.410017252 0.1144509837 0.1801050454 1.871571286e-38
0.4099705815 0.112663731 0.1800845563 1.871571286e-38
0.4099239409 0.1108768731 0.1800640672 1.871571286e-38
0.4098772705 0.1090904176 0.1800435632 1.871571286e-38
0.4098306596 0.1073043868 0.1800230891 1.871571286e-38
0.409784019 0.1055187508 0.1800026 1.871571286e-38
0.4097374082 0.1037335247 0.1799821258 1.871571286e-38
0.4096907973 0.1019487083 0.1799616516 1.871571286e-38
0.4096442163 0.1001642942 0.1799411923 1.871571286e-38
0.4095976353 0.09838028997 0.179920733 1.871571286e-38
0.4095510542 0.09659668058 0.1799002588 1.871571286e-38
0.409504503 0.09481348842 0.1798798144 1.871571286e-38
0.4094579816 0.09303070605 0.1798593849 1.871571286e-38
0.4094114304 0.09124831855 0.1798389405 1.880790849e-38
0.4093648791 0.08946633339 0.1798184812 1.880790849e-38
0.4093183577 0.08768475801 0.1797980517 1.880790849e-38
0.4092718661 0.08590359241 0.1797776371 1.880790849e-38
0.4092253447 0.08412282169 0.1797571927 1.880790849e-38
0.409178853 0.0823424533 0.1797367781 1.880790849e-38
0.409132421 0.08056250215 0.1797163785 1.880790849e-38
0.4090859592 0.07878295332 0.1796959639 1.880790849e-38
0.4090394676 0.07700379938 0.1796755493 1.880790849e-38
0.4089930654 0.07522505522 0.1796551645 1.880790849e-38
0.4089466035 0.07344671339 0.1796347499 1.880790849e-38
0.4089002013 0.07166878134 0.17961438 1.880790849e-38
0.4088537693 0.06989124417 0.1795939654 1.880790849e-38
0.4088073671 0.06811411679 0.1795735955 1.880790849e-38
0.4087609947 0.06633739173 0.1795532256 1.880790849e-38
0.4087145925 0.06456106156 0.1795328408 1.880790849e-38
0.40866822 0.06278514117 0.179512471 1.880790849e-38
0.4086218476 0.06100962311 0.1794921011 1.880790849e-38
0.4085755348 0.05923451483 0.179471761 1.880790849e-38
0.4085291922 0.05745980144 0.1794513911 1.880790849e-38
0.4084828496 0.0556854941 0.179431051 1.880790849e-38
0.4084365368 0.05391158536 0.179410696 1.880790849e-38
0.4083902538 0.05213808268 0.1793903708 1.880790849e-38
0.4083439112 0.05036497861 0.1793700159 1.880790849e-38
0.4082976282 0.04859227687 0.1793496907 1.880790849e-38
0.408251375 0.04681998119 0.1793293655 1.880790849e-38
0.408205092 0.04504808038 0.1793090403 1.880790849e-38
0.4081588387 0.04327658564 0.1792887151 1.880790849e-38
0.4081126153 0.04150549322 0.1792684197 1.880790849e-38
0.4080663919 0.03973479941 0.1792481095 1.880790849e-38
0.4080201387 0.03796450794 0.1792277843 1.880790849e-38
0.4079739451 0.03619461879 0.1792075038 1.880790849e-38
0.4079277515 0.03442512825 0.1791872084 1.880790849e-38
0.4078815579 0.03265604004 0.1791669279 1.880790849e-38
0.4078353643 0.03088734858 0.1791466326 1.880790849e-38
0.4077891707 0.02911905944 0.1791263372 1.880790849e-38
0.4077430665 0.0273511745 0.1791060865 1.880790849e-38
0.4076968729 0.02558368444 0.1790857911 1.880790849e-38
0.407650739 0.02381659858 0.1790655255 1.880790849e-38
0.407604605 0.02204990946 0.1790452749 1.880790849e-38
0.4075585306 0.02028362267 0.1790250242 1.880790849e-38
0.4075123668 0.01851773262 0.1790047437 1.880790849e-38
0.4074662924 0.0167522449 0.1789845228 1.880790849e-38
0.407420218 0.01498715486 0.1789642721 1.880790849e-38
0.4073741436 0.01322246622 0.1789440364 1.880790849e-38
0.4073280692 0.01145817433 0.1789237857 1.880790849e-38
0.4072819948 0.009694281965 0.1789035648 1.880790849e-38
0.40723598 0.007930789143 0.1788833439 1.880790849e-38
0.4071899056 0.006167694461 0.1788631082 1.880790849e-38
0.4071438909 0.00440499885 0.1788428873 1.880790849e-38
0.4070979059 0.002642701613 0.1788226813 1.880790849e-38
0.4070518911 0.0008808022249 0.1788024902 1.880790849e-38
0.4070058167 -0.0008806988481 0.1787822694 1.880790849e-38
0.4069598615 -0.002641801722 0.1787620783 1.880790849e-38
0.4069139063 -0.004402507097 0.1787418872 1.880790849e-38
0.4068679512 -0.006162814796 0.1787216961 1.880790849e-38
0.4068219364 -0.007922723889 0.1787014902 1.890010412e-38
0.406776011 -0.009682236239 0.178681314 1.890010412e-38
0.4067300856 -0.01144135091 0.1786611527 1.890010412e-38
0.4066841602 -0.01320006885 0.1786409765 1.890010412e-38
0.4066382647 -0.01495839003 0.1786208153 1.890010412e-38
0.4065923691 -0.01671631262 0.178600654 1.890010412e-38
0.4065464735 -0.01847384125 0.1785804927 1.890010412e-38
0.4065005779 -0.02023096941 0.1785603315 1.890010412e-38
0.4064547122 -0.0219877027 0.1785401851 1.890010412e-38
0.4064088762 -0.02374403924 0.1785200536 1.890010412e-38
0.4063630402 -0.02549998276 0.1784999073 1.890010412e-38
0.4063171744 -0.02725552395 0.1784797609 1.890010412e-38
0.4062713683 -0.02901067585 0.1784596443 1.890010412e-38
0.4062255323 -0.03076542728 0.1784395128 1.890010412e-38
0.4061797261 -0.03251978382 0.1784193963 1.890010412e-38
0.4061339498 -0.03427374735 0.1783992797 1.890010412e-38
0.4060881436 -0.03602731228 0.1783791631 1.890010412e-38
0.4060423672 -0.03778048232 0.1783590615 1.890010412e-38
0.4059965909 -0.03953325748 0.1783389449 1.890010412e-38
0.4059508443 -0.04128563777 0.1783188581 1.890010412e-38
0.4059051275 -0.04303762317 0.1782987714 1.890010412e-38
0.405859381 -0.04478921741 0.1782786846 1.890010412e-38
0.4058136344 -0.04654040933 0.1782585829 1.890010412e-38
0.4057679176 -0.04829121754 0.1782384962 1.890010412e-38
0.4057222307 -0.05004162341 0.1782184243 1.890010412e-38
0.4056765735 -0.05179163814 0.1781983674 1.890010412e-38
0.4056308568 -0.05354125798 0.1781782955 1.890010412e-38
0.4055851996 -0.05529048294 0.1781582385 1.890010412e-38
0.4055395424 -0.05703931302 0.1781381816 1.890010412e-38
0.4054938555 -0.05878774449 0.1781181246 1.890010412e-38
0.4054482281 -0.06053578854 0.1780980676 1.890010412e-38
0.4054026008 -0.0622834377 0.1780780256 1.890010412e-38
0.4053569734 -0.06403069198 0.1780579835 1.890010412e-38
0.4053113759 -0.06577755511 0.1780379564 1.890010412e-38
0.4052657485 -0.0675240308 0.1780179143 1.890010412e-38
0.4052201509 -0.06927011162 0.1779978871 1.890010412e-38
0.4051745832 -0.07101579756 0.1779778749 1.890010412e-38
0.4051289856 -0.07276108116 0.1779578477 1.890010412e-38
0.4050834477 -0.07450598478 0.1779378355 1.899229975e-38
0.4050379097 -0.07625049353 0.1779178381 1.899229975e-38
0.404992342 -0.07799459994 0.1778978258 1.899229975e-38
0.4049468338 -0.07973832637 0.1778778285 1.899229975e-38
0.4049013257 -0.08148165792 0.1778578311 1.899229975e-38
0.4048558176 -0.08322459459 0.1778378487 1.899229975e-38
0.4048103094 -0.08496715128 0.1778178662 1.899229975e-38
0.4047648013 -0.08670929819 0.1777978688 1.899229975e-38
0.4047193527 -0.08845106512 0.1777779013 1.899229975e-38
0.4046738744 -0.09019243717 0.1777579337 1.899229975e-38
0.404628396 -0.09193341434 0.1777379513 1.899229975e-38
0.4045829773 -0.09367400408 0.1777179986 1.899229975e-38
0.4045375288 -0.09541420639 0.1776980311 1.899229975e-38
0.4044920802 -0.09715401381 0.1776780784 1.899229975e-38
0.4044466913 -0.09889343381 0.1776581407 1.899229975e-38
0.4044012725 -0.1006324589 0.177638188 1.899229975e-38
0.4043558836 -0.1023710966 0.1776182503 1.899229975e-38
0.4043104649 -0.104109332 0.1775982976 1.899229975e-38
0.4042651057 -0.1058471948 0.1775783747 1.899229975e-38
0.4042197764 -0.1075846627 0.1775584519 1.899229975e-38
0.4041743875 -0.1093217358 0.177538529 1.899229975e-38
0.4041290581 -0.1110584214 0.1775186062 1.899229975e-38
0.4040837288 -0.1127947196 0.1774986982 1.899229975e-38
0.4040384293 -0.1145306453 0.1774787903 1.899229975e-38
0.4039930701 -0.1162661538 0.1774588823 1.899229975e-38
0.4039477706 -0.1180012822 0.1774389744 1.899229975e-38
0.4039024711 -0.1197360158 0.1774190813 1.899229975e-38
0.4038572013 -0.1214703694 0.1773991883 1.899229975e-38
0.4038119316 -0.1232043356 0.1773793101 1.899229975e-38
0.4037666619 -0.1249378994 0.1773594171 1.899229975e-38
0.4037213624 -0.1266710758 0.177339524 1.899229975e-38
0.4036761224 -0.1284038723 0.1773196608 1.899229975e-38
0.4036309421 -0.1301362962 0.1772997975 1.899229975e-38
0.4035857022 -0.1318683028 0.1772799343 1.899229975e-38
0.4035404921 -0.133599937 0.177260071 1.899229975e-38
0.4034952819 -0.1353311837 0.1772402078 1.899229975e-38
0.4034501016 -0.137062043 0.1772203743 1.899229975e-38
0.4034048915 -0.1387924999 0.1772005111 1.899229975e-38
0.4033597112 -0.1405225843 0.1771806628 1.899229975e-38
0.4033145308 -0.1422522664 0.1771608293 1.899229975e-38
0.4032694101 -0.143981576 0.1771409959 1.899229975e-38
0.4032242596 -0.1457104981 0.1771211624 1.899229975e-38
0.4031791091 -0.1474390179 0.1771013439 1.899229975e-38
0.4031340182 -0.1491671801 0.1770815253 1.899229975e-38
0.4030888677 -0.150894925 0.1770616919 1.899229975e-38
0.4030438066 -0.1526223123 0.1770418882 1.899229975e-38
0.4029986858 -0.1543492824 0.1770220846 1.899229975e-38
0.4029535949 -0.1560758948 0.177002281 1.899229975e-38
0.4029085338 -0.1578021049 0.1769824773 1.899229975e-38
0.4028635025 -0.1595279276 0.1769626886 1.899229975e-38
0.4028184414 -0.1612533778 0.1769429147 1.899229975e-38
0.4027734101 -0.1629784256 0.176923126 1.899229975e-38
0.402728349 -0.164703086 0.1769033372 1.899229975e-38
0.4026833475 -0.1664273739 0.1768835634 1.899229975e-38
0.402638346 -0.1681512743 0.1768637896 1.899229975e-38
0.4025932848 -0.1698747724 0.1768440008 1.899229975e-38
0.4025483131 -0.171597898 0.1768242568 1.899229975e-38
0.4025033414 -0.1733206362 0.1768044978 1.899229975e-38
0.4024583995 -0.1750430018 0.1767847538 1.899229975e-38
0.4024134278 -0.1767649651 0.1767649949 1.899229975e-38
0.4023684859 -0.1784865558 0.1767452508 1.899229975e-38
0.4023235142 -0.1802077591 0.1767255068 1.899229975e-38
0.4022786021 -0.1819285899 0.1767057776 1.899229975e-38
0.4022336602 -0.1836490184 0.1766860336 1.899229975e-38
0.4021887481 -0.1853690594 0.1766663045 1.899229975e-38
0.402143836 -0.187088728 0.1766465753 1.899229975e-38
0.4020989537 -0.188808009 0.1766268611 1.899229975e-38
0.4020541012 -0.1905269176 0.1766071618 1.899229975e-38
0.4020092189 -0.1922454089 0.1765874475 1.899229975e-38
0.4019643664 -0.1939635575 0.1765677482 1.899229975e-38
0.4019194841 -0.1956812888 0.176548034 1.899229975e-38
0.4018746614 -0.1973986626 0.1765283495 1.899229975e-38
0.401829809 -0.199115634 0.1765086502 1.899229975e-38
0.4017850161 -0.2008322477 0.1764889508 1.899229975e-38
0.4017401934 -0.2025484443 0.1764692664 1.899229975e-38
0.4016953707 -0.2042642832 0.176449582 1.899229975e-38
0.4016506076 -0.2059797496 0.1764299124 1.899229975e-38
0.4016058147 -0.2076947987 0.1764102429 1.899229975e-38
0.4015610516 -0.2094094902 0.1763905734 1.899229975e-38
0.4015162885 -0.2111237794 0.1763709188 1.899229975e-38
0.4014715552 -0.212837711 0.1763512641 1.899229975e-38
0.4014267921 -0.2145512402 0.1763316095 1.899229975e-38
0.4013820887 -0.2162644118 0.1763119698 1.899229975e-38
0.4013373554 -0.2179771811 0.17629233 1.890010412e-38
0.4012926519 -0.2196895778 0.1762726754 1.890010412e-38
0.4012479186 -0.2214015722 0.1762530357 1.890010412e-38
0.4012032449 -0.2231132239 0.1762334108 1.890010412e-38
0.4011585712 -0.2248244584 0.176213786 1.890010412e-38
0.4011139274 -0.2265353501 0.1761941761 1.890010412e-38
0.4010692239 -0.2282458097 0.1761745512 1.890010412e-38
0.40102458 -0.2299559265 0.1761549264 1.890010412e-38
0.4009799361 -0.2316656411 0.1761353165 1.890010412e-38
0.4009352922 -0.2333749831 0.1761157066 1.890010412e-38
0.4008906782 -0.2350839823 0.1760961562 1.890010412e-38
0.4008460939 -0.2367925644 0.1760765612 1.890010412e-38
0.4008014798 -0.2385007739 0.1760569662 1.890010412e-38
0.4007568955 -0.2402085811 0.1760373861 1.890010412e-38
0.4007123113 -0.2419160306 0.1760178059 1.890010412e-38
0.400667727 -0.2436230779 0.1759982109 1.890010412e-38
0.4006231725 -0.2453297824 0.1759786457 1.890010412e-38
0.400578618 -0.2470360696 0.1759590805 1.890010412e-38
0.4005340636 -0.2487419993 0.1759395003 1.890010412e-38
0.4004895389 -0.2504475415 0.17591995 1.890010412e-38
0.4004449844 -0.2521527112 0.1759003848 1.890010412e-38
0.4004004896 -0.2538575232 0.1758808345 1.890010412e-38
0.4003559947 -0.255561918 0.1758612841 1.890010412e-38
0.4003114998 -0.2572659552 0.1758417487 1.890010412e-38
0.400267005 -0.2589695752 0.1758221984 1.890010412e-38
0.4002225399 -0.2606728673 0.175802663 1.890010412e-38
0.4001780748 -0.2623757422 0.1757831424 1.890010412e-38
0.4001336396 -0.2640782893 0.1757636219 1.890010412e-38
0.4000891745 -0.2657803893 0.1757440865 1.890010412e-38
0.4000447392 -0.2674821615 0.175724566 1.890010412e-38
0.4000003338 -0.2691835463 0.1757050604 1.890010412e-38
0.3999558985 -0.2708845437 0.1756855398 1.890010412e-38
0.3999115229 -0.2725851834 0.1756660491 1.890010412e-38
0.3998671174 -0.2742854357 0.1756465435 1.890010412e-38
0.3998227417 -0.2759853005 0.1756270528 1.890010412e-38
0.4158827364 0.2870709598 0.1808817238 1.871571286e-38
0.4158347249 0.2852382064 0.1808608472 1.871571286e-38
0.4157867134 0.2834058702 0.1808399558 1.871571286e-38
0.4157387614 0.281573981 0.1808190942 1.871571286e-38
0.4156907499 0.2797424793 0.1807982177 1.871571286e-38
0.4156427979 0.2779114246 0.180777356 1.871571286e-38
0.415594846 0.2760807872 0.1807564944 1.871571286e-38
0.4155468941 0.2742505968 0.1807356477 1.871571286e-38
0.4154989719 0.2724207938 0.1807148159 1.871571286e-38
0.4154510498 0.270591408 0.1806939691 1.871571286e-38
0.4154031277 0.2687624693 0.1806731224 1.871571286e-38
0.4153552353 0.2669339478 0.1806522906 1.871571286e-38
0.4153073728 0.2651058733 0.1806314737 1.871571286e-38
0.4152594805 0.2632781565 0.1806106418 1.871571286e-38
0.4152116179 0.2614509165 0.1805898249 1.871571286e-38
0.4151637554 0.259624064 0.180569008 1.871571286e-38
0.4151159227 0.2577976584 0.180548206 1.871571286e-38
0.4150680602 0.2559716403 0.180527389 1.871571286e-38
0.4150202572 0.2541460991 0.1805066019 1.871571286e-38
0.4149724245 0.2523209155 0.1804857999 1.871571286e-38
0.4149246216 0.2504961789 0.1804649979 1.871571286e-38
0.4148768187 0.2486718595 0.1804442108 1.871571286e-38
0.4148290753 0.2468479574 0.1804234385 1.871571286e-38
0.4147813022 0.2450244874 0.1804026663 1.871571286e-38
0.4147335291 0.2432014197 0.1803818941 1.871571286e-38
0.4146857858 0.2413787842 0.1803611219 1.871571286e-38
0.4146380424 0.2395565659 0.1803403646 1.871571286e-38
0.4145903289 0.2377347946 0.1803196073 1.871571286e-38
0.4145426154 0.2359133959 0.1802988499 1.871571286e-38
0.4144949019 0.2340924442 0.1802781075 1.871571286e-38
0.4144472182 0.2322718948 0.1802573651 1.871571286e-38
0.4143995345 0.2304517925 0.1802366376 1.871571286e-38
0.4143518806 0.2286320776 0.1802158952 1.871571286e-38
0.4143042266 0.2268128097 0.1801951677 1.871571286e-38
0.4142565727 0.2249939293 0.180174455 1.871571286e-38
0.4142089188 0.223175481 0.1801537126 1.871571286e-38
0.4141613245 0.2213574648 0.1801330149 1.871571286e-38
0.4141136706 0.219539851 0.1801123023 1.871571286e-38
0.4140661061 0.2177226692 0.1800916046 1.871571286e-38
0.414018482 0.215905875 0.180070892 1.871571286e-38
0.4139709175 0.2140895277 0.1800502092 1.871571286e-38
0.413923353 0.2122735977 0.1800295115 1.871571286e-38
0.4138758183 0.21045807 0.1800088435 1.871571286e-38
0.4138282537 0.2086429447 0.1799881458 1.871571286e-38
0.413780719 0.2068282664 0.1799674779 1.871571286e-38
0.4137331843 0.2050139904 0.1799467951 1.871571286e-38
0.4136856496 0.2032001317 0.1799261272 1.871571286e-38
0.4136381447 0.2013866901 0.1799054742 1.871571286e-38
0.4135906696 0.1995736957 0.1798848212 1.871571286e-38
0.4135431945 0.1977610737 0.1798641831 1.871571286e-38
0.4134956896 0.1959488839 0.1798435152 1.871571286e-38
0.4134482443 0.1941370964 0.179822877 1.871571286e-38
0.413400799 0.192325756 0.1798022389 1.871571286e-38
0.4133533537 0.1905148029 0.1797816008 1.871571286e-38
0.4133059084 0.1887042969 0.1797609776 1.871571286e-38
0.4132585227 0.1868941784 0.1797403544 1.871571286e-38
0.4132111073 0.1850844771 0.1797197461 1.871571286e-38
0.4131636918 0.183275193 0.179699108 1.871571286e-38
0.4131163061 0.1814663261 0.1796784997 1.871571286e-38
0.4130689502 0.1796578765 0.1796579063 1.871571286e-38
0.4130215943 0.177849859 0.1796373129 1.871571286e-38
0.4129742384 0.1760422289 0.1796167046 1.871571286e-38
0.4129268825 0.1742350161 0.1795961261 1.871571286e-38
0.4128795564 0.1724282205 0.1795755327 1.871571286e-38
0.4128322601 0.170621857 0.1795549542 1.871571286e-38
0.4127849042 0.168815881 0.1795343608 1.871571286e-38
0.4127376378 0.1670103371 0.1795138121 1.871571286e-38
0.4126903713 0.1652052104 0.1794932485 1.871571286e-38
0.4126430452 0.1634004712 0.17947267 1.871571286e-38
0.4125957787 0.1615961641 0.1794521064 1.871571286e-38
0.412548542 0.1597922742 0.1794315726 1.871571286e-38
0.4125013053 0.1579888016 0.1794110239 1.871571286e-38
0.4124540687 0.1561857164 0.1793904752 1.871571286e-38
0.4124068618 0.1543830782 0.1793699414 1.871571286e-38
0.4123596549 0.1525808275 0.1793494076 1.871571286e-38
0.412312448 0.1507789791 0.1793288738 1.871571286e-38
0.4122652411 0.1489775628 0.17930834 1.871571286e-38
0.4122180641 0.1471765488 0.1792878211 1.871571286e-38
0.412170887 0.1453759521 0.1792673171 1.871571286e-38
0.4121237099 0.1435757726 0.1792467982 1.871571286e-38
0.4120765924 0.1417759955 0.1792262942 1.871571286e-38
0.412029475 0.1399766505 0.1792058051 1.871571286e-38
0.4119823277 0.1381776929 0.1791853011 1.871571286e-38
0.4119352102 0.1363791674 0.179164812 1.871571286e-38
0.4118881226 0.1345810443 0.1791443229 1.871571286e-38
0.4118410349 0.1327833384 0.1791238487 1.871571286e-38
0.4117939472 0.1309860349 0.1791033745 1.871571286e-38
0.4117468596 0.1291891336 0.1790828854 1.871571286e-38
0.4116998017 0.1273926497 0.1790624261 1.871571286e-38
0.4116527736 0.1255965829 0.1790419519 1.871571286e-38
0.4116057158 0.1238009259 0.1790214926 1.871571286e-38
0.4115586877 0.1220056713 0.1790010333 1.871571286e-38
0.4115116596 0.1202108338 0.1789805889 1.871571286e-38
0.4114646912 0.1184164137 0.1789601594 1.871571286e-38
0.4114176631 0.1166223809 0.1789397001 1.871571286e-38
0.4113706648 0.1148287728 0.1789192706 1.871571286e-38
0.4113237262 0.113035582 0.178898856 1.871571286e-38
0.4112767577 0.1112427786 0.1788784117 1.871571286e-38
0.4112297595 0.1094503924 0.1788579822 1.871571286e-38
0.4111828506 0.1076584309 0.1788375825 1.871571286e-38
0.4111359119 0.1058668643 0.1788171679 1.871571286e-38
0.4110889733 0.1040757 0.1787967384 1.871571286e-38
0.4110420942 0.1022849679 0.1787763536 1.871571286e-38
0.4109951854 0.1004946306 0.1787559539 1.871571286e-38
0.4109483063 0.09870470315 0.1787355691 1.871571286e-38
0.4109014273 0.09691518545 0.1787151694 1.871571286e-38
0.4108545482 0.09512607008 0.1786947846 1.871571286e-38
0.410807699 0.09333736449 0.1786744148 1.871571286e-38
0.4107608497 0.09154907614 0.17865403 1.880790849e-38
0.4107140005 0.08976118267 0.1786336601 1.880790849e-38
0.410667181 0.08797370642 0.1786133051 1.880790849e-38
0.4106203914 0.08618663251 0.1785929352 1.880790849e-38
0.4105735719 0.08439996839 0.1785725802 1.880790849e-38
0.4105267823 0.08261370659 0.1785522252 1.880790849e-38
0.4104799926 0.08082785457 0.1785318851 1.880790849e-38
0.4104332328 0.07904241234 0.1785115302 1.880790849e-38
0.4103864431 0.07725737244 0.1784911901 1.880790849e-38
0.4103397131 0.07547274977 0.1784708798 1.880790849e-38
0.4102929831 0.07368852198 0.1784505397 1.880790849e-38
0.410246253 0.07190471143 0.1784302294 1.880790849e-38
0.410199523 0.07012129575 0.1784098893 1.880790849e-38
0.4101528227 0.06833829731 0.178389594 1.880790849e-38
0.4101061225 0.06655569375 0.1783692688 1.880790849e-38
0.4100594223 0.06477349252 0.1783489585 1.880790849e-38
0.4100127518 0.06299170852 0.1783286631 1.880790849e-38
0.4099661112 0.06121032685 0.1783083677 1.880790849e-38
0.4099194407 0.05942935497 0.1782880872 1.880790849e-38
0.4098728001 0.05764878169 0.1782677919 1.880790849e-38
0.4098261595 0.05586861446 0.1782474965 1.880790849e-38
0.4097795486 0.0540888533 0.1782272309 1.880790849e-38
0.4097329676 0.05230950192 0.1782069653 1.880790849e-38
0.409686327 0.05053054914 0.1781866848 1.880790849e-38
0.409639746 0.04875200614 0.1781664342 1.880790849e-38
0.4095931649 0.04697386175 0.1781461686 1.880790849e-38
0.4095465839 0.04519612342 0.178125903 1.880790849e-38
0.4095000327 0.04341879115 0.1781056672 1.880790849e-38
0.4094534814 0.0416418612 0.1780854166 1.880790849e-38
0.40940696 0.03986533731 0.1780651808 1.880790849e-38
0.4093604088 0.03808921203 0.1780449301 1.880790849e-38
0.4093138874 0.03631349653 0.1780247092 1.880790849e-38
0.4092673957 0.03453818336 0.1780044883 1.880790849e-38
0.4092209339 0.03276327252 0.1779842675 1.880790849e-38
0.4091744125 0.03098876029 0.1779640317 1.880790849e-38
0.4091279507 0.02921465784 0.1779438257 1.880790849e-38
0.4090814888 0.02744095773 0.1779236197 1.880790849e-38
0.409035027 0.02566765621 0.1779034138 1.880790849e-38
0.4089885652 0.02389476076 0.1778832078 1.880790849e-38
0.4089421332 0.02212226577 0.1778630167 1.880790849e-38
0.408895731 0.02035017312 0.1778428257 1.880790849e-38
0.408849299 0.01857848279 0.1778226346 1.880790849e-38
0.4088029265 0.01680719852 0.1778024584 1.880790849e-38
0.4087565243 0.01503631193 0.1777822822 1.880790849e-38
0.4087101817 0.01326583046 0.177762121 1.880790849e-38
0.4086637795 0.01149574853 0.1777419448 1.880790849e-38
0.4086174369 0.009726068936 0.1777217835 1.880790849e-38
0.4085710645 0.007956790738 0.1777016222 1.880790849e-38
0.4085247219 0.006187913474 0.177681461 1.880790849e-38
0.4084784091 0.004419437144 0.1776613146 1.880790849e-38
0.4084320664 0.002651362447 0.1776411682 1.880790849e-38
0.4083857834 0.0008836886263 0.1776210368 1.880790849e-38
0.408339411 -0.0008835844346 0.1776008904 1.880790849e-38
0.4082931578 -0.002650456969 0.1775807738 1.880790849e-38
0.4082468748 -0.004416929092 0.1775606424 1.880790849e-38
0.4082006216 -0.006182999816 0.1775405258 1.880790849e-38
0.4081543684 -0.007948671468 0.1775204092 1.890010412e-38
0.4081081152 -0.009713943116 0.1775002778 1.890010412e-38
0.4080618918 -0.01147881337 0.1774801761 1.890010412e-38
0.4080156684 -0.01324328687 0.1774600744 1.890010412e-38
0.407969445 -0.01500735711 0.1774399728 1.890010412e-38
0.4079232514 -0.01677102968 0.177419886 1.890010412e-38
0.4078770876 -0.01853430457 0.1773997992 1.890010412e-38
0.4078308642 -0.02029717527 0.1773796976 1.890010412e-38
0.4077847004 -0.02205965109 0.1773596257 1.890010412e-38
0.4077385366 -0.02382172458 0.1773395538 1.890010412e-38
0.4076924324 -0.02558340505 0.1773194969 1.890010412e-38
0.4076462686 -0.02734467946 0.1772994101 1.890010412e-38
0.4076001346 -0.02910555899 0.1772793531 1.890010412e-38
0.4075540304 -0.03086603805 0.1772592962 1.890010412e-38
0.4075079262 -0.03262612224 0.1772392392 1.890010412e-38
0.4074617922 -0.03438580781 0.1772191823 1.890010412e-38
0.4074157476 -0.03614509478 0.1771991551 1.890010412e-38
0.4073696733 -0.03790398315 0.177179113 1.890010412e-38
0.4073235989 -0.03966246918 0.177159071 1.890010412e-38
0.4072775245 -0.04142056406 0.1771390438 1.890010412e-38
0.4072315097 -0.04317826033 0.1771190166 1.890010412e-38
0.4071854651 -0.04493556172 0.1770990044 1.890010412e-38
0.4071394205 -0.04669245705 0.1770789623 1.890010412e-38
0.4070934355 -0.04844896868 0.177058965 1.890010412e-38
0.4070474207 -0.05020507425 0.1770389527 1.890010412e-38
0.4070014358 -0.05196078122 0.1770189553 1.890010412e-38
0.4069554508 -0.0537160933 0.1769989431 1.890010412e-38
0.4069094658 -0.05547101051 0.1769789606 1.890010412e-38
0.4068635106 -0.0572255291 0.1769589633 1.890010412e-38
0.4068175554 -0.05897965282 0.1769389808 1.890010412e-38
0.40677163 -0.06073338166 0.1769189984 1.890010412e-38
0.4067257047 -0.06248671189 0.1768990308 1.890010412e-38
0.4066797793 -0.06423964351 0.1768790483 1.890010412e-38
0.4066338539 -0.06599218398 0.1768590808 1.890010412e-38
0.4065879583 -0.06774432957 0.1768391132 1.890010412e-38
0.4065420926 -0.06949608773 0.1768191606 1.890010412e-38
0.406496197 -0.07124743611 0.1767992079 1.890010412e-38
0.4064503312 -0.0729983896 0.1767792553 1.890010412e-38
0.4064044654 -0.07474895567 0.1767593175 1.899229975e-38
0.4063586295 -0.07649912685 0.1767393798 1.890010412e-38
0.4063127637 -0.0782488957 0.1767194271 1.899229975e-38
0.4062669277 -0.07999826968 0.1766995043 1.899229975e-38
0.4062211514 -0.08174725622 0.1766795814 1.899229975e-38
0.4061753452 -0.08349584788 0.1766596586 1.899229975e-38
0.4061295092 -0.08524403721 0.1766397208 1.899229975e-38
0.4060837626 -0.08699184656 0.1766198277 1.899229975e-38
0.4060379863 -0.08873925358 0.1765999198 1.899229975e-38
0.4059922099 -0.09048626572 0.1765800118 1.899229975e-38
0.4059464633 -0.09223288298 0.1765601039 1.899229975e-38
0.4059007168 -0.0939791128 0.1765402257 1.899229975e-38
0.405855 -0.0957249403 0.1765203327 1.899229975e-38
0.4058092237 -0.09747037292 0.1765004247 1.899229975e-38
0.4057635367 -0.0992154181 0.1764805466 1.899229975e-38
0.4057178199 -0.1009600759 0.1764606684 1.899229975e-38
0.4056721628 -0.1027043387 0.1764408052 1.899229975e-38
0.4056264758 -0.1044481993 0.176420927 1.899229975e-38
0.4055807889 -0.1061916724 0.1764010787 1.899229975e-38
0.4055351317 -0.1079347581 0.1763812155 1.899229975e-38
0.4054895043 -0.1096774489 0.1763613671 1.899229975e-38
0.4054438472 -0.1114197373 0.1763415039 1.899229975e-38
0.40539819 -0.1131616384 0.1763216555 1.899229975e-38
0.4053525925 -0.1149031669 0.1763018221 1.899229975e-38
0.4053069651 -0.1166442856 0.1762819737 1.899229975e-38
0.4052613676 -0.1183850095 0.1762621403 1.899229975e-38
0.40521577 -0.1201253459 0.1762423068 1.899229975e-38
0.4051702023 -0.1218652949 0.1762224883 1.899229975e-38
0.4051246345 -0.123604849 0.1762026697 1.899229975e-38
0.4050790668 -0.1253440082 0.1761828512 1.899229975e-38
0.405033499 -0.1270827651 0.1761630327 1.899229975e-38
0.4049879611 -0.1288211495 0.176143229 1.899229975e-38
0.4049424529 -0.1305591464 0.1761234403 1.899229975e-38
0.404896915 -0.132296741 0.1761036366 1.899229975e-38
0.4048514366 -0.1340339482 0.1760838479 1.899229975e-38
0.4048059285 -0.1357707679 0.1760640442 1.899229975e-38
0.4047604501 -0.1375072002 0.1760442704 1.899229975e-38
0.404714942 -0.1392432302 0.1760244817 1.899229975e-38
0.4046694934 -0.1409788728 0.1760047078 1.899229975e-38
0.4046240449 -0.1427141428 0.1759849489 1.899229975e-38
0.4045785964 -0.1444490105 0.1759651899 1.899229975e-38
0.4045331478 -0.1461834759 0.1759454012 1.899229975e-38
0.4044877291 -0.1479175687 0.1759256572 1.899229975e-38
0.4044423401 -0.1496512741 0.1759059131 1.899229975e-38
0.4043968916 -0.1513845772 0.1758861542 1.899229975e-38
0.4043515325 -0.1531175077 0.1758664101 1.899229975e-38
0.4043061137 -0.1548500359 0.1758466661 1.899229975e-38
0.4042607546 -0.1565821767 0.175826937 1.899229975e-38
0.4042153656 -0.15831393 0.1758072078 1.899229975e-38
0.4041700363 -0.1600453109 0.1757874787 1.899229975e-38
0.404124707 -0.1617762893 0.1757677644 1.899229975e-38
0.4040793478 -0.1635068655 0.1757480502 1.899229975e-38
0.4040340185 -0.1652370691 0.1757283211 1.899229975e-38
0.403988719 -0.1669668853 0.1757086217 1.899229975e-38
0.4039434195 -0.1686962992 0.1756889224 1.899229975e-38
0.4038981199 -0.1704253405 0.1756692082 1.899229975e-38
0.4038528204 -0.1721539795 0.1756495237 1.899229975e-38
0.4038075507 -0.173882246 0.1756298244 1.899229975e-38
0.4037622809 -0.1756101102 0.17561014 1.899229975e-38
0.4037170112 -0.1773375869 0.1755904406 1.899229975e-38
0.4036718011 -0.179064706 0.175570786 1.899229975e-38
0.4036265612 -0.1807914227 0.1755511165 1.899229975e-38
0.403581351 -0.1825177521 0.1755314469 1.899229975e-38
0.4035361111 -0.184243679 0.1755117774 1.899229975e-38
0.403490901 -0.1859692186 0.1754921079 1.899229975e-38
0.4034457505 -0.1876944005 0.1754724532 1.899229975e-38
0.4034005404 -0.1894191653 0.1754527986 1.899229975e-38
0.4033553898 -0.1911435872 0.1754331589 1.899229975e-38
0.4033102095 -0.1928675622 0.1754135191 1.899229975e-38
0.4032650888 -0.1945912093 0.1753938794 1.899229975e-38
0.4032199085 -0.1963144094 0.1753742397 1.899229975e-38
0.4031747878 -0.1980372816 0.1753546149 1.899229975e-38
0.4031296968 -0.1997597367 0.17533499 1.899229975e-38
0.4030845761 -0.2014818341 0.1753153801 1.899229975e-38
0.4030394554 -0.2032035142 0.1752957553 1.899229975e-38
0.4029943645 -0.2049248219 0.1752761453 1.899229975e-38
0.4029492736 -0.206645757 0.1752565354 1.899229975e-38
0.4029042125 -0.2083662748 0.1752369255 1.899229975e-38
0.4028591514 -0.21008645 0.1752173305 1.899229975e-38
0.4028141201 -0.2118062079 0.1751977503 1.899229975e-38
0.4027690887 -0.2135255933 0.1751781553 1.899229975e-38
0.4027240276 -0.2152445763 0.1751585603 1.899229975e-38
0.4026790261 -0.2169632018 0.1751389951 1.899229975e-38
0.4026340246 -0.2186814249 0.1751194149 1.890010412e-38
0.4025889933 -0.2203992754 0.1750998348 1.890010412e-38
0.4025439918 -0.2221167088 0.1750802547 1.890010412e-38
0.4024990201 -0.2238337994 0.1750606894 1.890010412e-38
0.4024540782 -0.2255505025 0.175041154 1.890010412e-38
0.4024091363 -0.2272668332 0.1750216037 1.890010412e-38
0.4023641348 -0.2289827317 0.1750020385 1.890010412e-38
0.4023191929 -0.2306982875 0.1749824882 1.890010412e-38
0.4022742808 -0.2324134409 0.1749629527 1.890010412e-38
0.4022293389 -0.2341282368 0.1749434471 1.890010412e-38
0.4021844268 -0.2358426452 0.1749239117 1.890010412e-38
0.4021395445 -0.2375566512 0.1749043912 1.890010412e-38
0.4020946622 -0.2392702997 0.1748848855 1.890010412e-38
0.4020497501 -0.240983516 0.1748653501 1.890010412e-38
0.4020049274 -0.2426964045 0.1748458445 1.890010412e-38
0.4019600451 -0.2444088608 0.174826324 1.890010412e-38
0.4019152224 -0.2461210042 0.1748068333 1.890010412e-38
0.4018703401 -0.2478326857 0.1747873127 1.890010412e-38
0.4018255174 -0.2495440394 0.174767822 1.890010412e-38
0.4017807245 -0.2512549758 0.1747483313 1.890010412e-38
0.401735872 -0.2529655397 0.1747288257 1.890010412e-38
0.4016910791 -0.254675746 0.1747093499 1.890010412e-38
0.4016463161 -0.2563855648 0.1746898741 1.890010412e-38
0.4016015232 -0.2580949962 0.1746703982 1.890010412e-38
0.4015567303 -0.2598040402 0.1746509075 1.890010412e-38
0.401511997 -0.2615127265 0.1746314466 1.890010412e-38
0.4014672339 -0.2632209957 0.1746119857 1.890010412e-38
0.4014225006 -0.2649289072 0.1745925248 1.890010412e-38
0.4013777375 -0.2666364014 0.1745730639 1.890010412e-38
0.4013330638 -0.2683435678 0.1745536327 1.890010412e-38
0.4012883604 -0.270050317 0.1745341867 1.890010412e-38
0.4012436271 -0.2717567086 0.1745147407 1.890010412e-38
0.4011989534 -0.2734627128 0.1744952947 1.890010412e-38
0.4011542797 -0.2751683295 0.1744758636 1.890010412e-38
0.4011096358 -0.2768735886 0.1744564474 1.890010412e-38
0.4172752798 0.2880321741 0.1796815246 1.871571286e-38
0.4172269404 0.2861931622 0.1796607226 1.871571286e-38
0.4171786308 0.2843546271 0.1796399057 1.871571286e-38
0.4171302915 0.2825164497 0.1796191037 1.871571286e-38
0.4170820117 0.2806787491 0.1795983016 1.871571286e-38
0.4170337319 0.2788414359 0.1795775145 1.871571286e-38
0.4169854224 0.2770045698 0.1795567274 1.871571286e-38
0.4169371724 0.2751681209 0.1795359403 1.871571286e-38
0.4168889225 0.273332119 0.1795151681 1.871571286e-38
0.4168407023 0.2714965343 0.1794943959 1.871571286e-38
0.4167924523 0.2696613669 0.1794736236 1.871571286e-38
0.4167442322 0.267826587 0.1794528514 1.871571286e-38
0.4166960418 0.2659923136 0.1794320941 1.871571286e-38
0.4166478217 0.2641583681 0.1794113368 1.871571286e-38
0.4165996313 0.2623249292 0.1793905795 1.871571286e-38
0.4165514708 0.2604918778 0.1793698519 1.871571286e-38
0.4165033102 0.2586592734 0.1793491095 1.871571286e-38
0.4164551198 0.2568270266 0.1793283671 1.871571286e-38
0.4164069891 0.2549952865 0.1793076396 1.871571286e-38
0.4163588583 0.2531639338 0.1792869121 1.871571286e-38
0.4163107574 0.2513330281 0.1792661995 1.871571286e-38
0.4162626266 0.24950248 0.179245472 1.871571286e-38
0.4162145257 0.247672379 0.1792247593 1.871571286e-38
0.4161664546 0.2458427548 0.1792040616 1.871571286e-38
0.4161183834 0.2440134883 0.1791833639 1.871571286e-38
0.4160703123 0.2421846986 0.1791626662 1.871571286e-38
0.4160222411 0.2403562814 0.1791419685 1.871571286e-38
0.4159742296 0.2385283411 0.1791212857 1.871571286e-38
0.4159261584 0.2367007583 0.179100588 1.871571286e-38
0.4158781469 0.2348736525 0.1790799052 1.871571286e-38
0.4158301353 0.233046934 0.1790592521 1.871571286e-38
0.4157821536 0.2312206775 0.1790385842 1.871571286e-38
0.4157341719 0.2293947935 0.1790179163 1.871571286e-38
0.4156861901 0.2275693715 0.1789972633 1.871571286e-38
0.4156382382 0.2257443517 0.1789766103 1.871571286e-38
0.4155902565 0.2239197344 0.1789559424 1.871571286e-38
0.4155423045 0.222095564 0.1789353043 1.871571286e-38
0.4154943824 0.2202718258 0.1789146662 1.871571286e-38
0.41544649 0.2184484899 0.178894043 1.871571286e-38
0.4153985679 0.2166255713 0.1788734049 1.871571286e-38
0.4153506756 0.2148030698 0.1788527817 1.871571286e-38
0.4153027833 0.2129810154 0.1788321584 1.871571286e-38
0.4152549207 0.2111593485 0.1788115501 1.871571286e-38
0.4152070284 0.2093380988 0.1787909269 1.871571286e-38
0.4151591957 0.2075172961 0.1787703186 1.871571286e-38
0.4151113331 0.2056968808 0.1787497103 1.871571286e-38
0.4150635004 0.2038769275 0.1787291169 1.871571286e-38
0.4150156677 0.2020573616 0.1787085235 1.871571286e-38
0.4149678648 0.2002382427 0.178687945 1.871571286e-38
0.4149200618 0.1984195113 0.1786673665 1.871571286e-38
0.4148722589 0.1966012269 0.1786467731 1.871571286e-38
0.4148245156 0.1947833449 0.1786262095 1.871571286e-38
0.4147767425 0.1929658949 0.1786056459 1.871571286e-38
0.4147289693 0.1911488324 0.1785850823 1.871571286e-38
0.414681226 0.189332217 0.1785645038 1.871571286e-38
0.4146334827 0.1875160038 0.1785439551 1.871571286e-38
0.414585799 0.1857002228 0.1785234213 1.871571286e-38
0.4145380557 0.1838848442 0.1785028577 1.871571286e-38
0.4144903421 0.1820698977 0.1784823239 1.871571286e-38
0.4144426882 0.1802553684 0.1784617901 1.871571286e-38
0.4143950045 0.1784412414 0.1784412563 1.871571286e-38
0.4143473208 0.1766275465 0.1784207374 1.871571286e-38
0.4142996669 0.1748142689 0.1784002036 1.871571286e-38
0.414252013 0.1730014086 0.1783796996 1.871571286e-38
0.4142043889 0.1711889654 0.1783591807 1.871571286e-38
0.4141567647 0.1693769246 0.1783386767 1.871571286e-38
0.4141091704 0.167565316 0.1783181727 1.871571286e-38
0.4140615463 0.1657541245 0.1782976836 1.871571286e-38
0.414013952 0.1639433354 0.1782771796 1.871571286e-38
0.4139663577 0.1621329635 0.1782566905 1.871571286e-38
0.413918823 0.1603230238 0.1782362163 1.871571286e-38
0.4138712585 0.1585134864 0.1782157421 1.871571286e-38
0.413823694 0.1567043662 0.178195253 1.871571286e-38
0.4137761593 0.1548956633 0.1781747788 1.871571286e-38
0.4137286544 0.1530873924 0.1781543344 1.871571286e-38
0.4136811495 0.1512795091 0.1781338751 1.871571286e-38
0.4136336148 0.1494720429 0.1781134009 1.871571286e-38
0.4135861099 0.147664994 0.1780929565 1.871571286e-38
0.4135386348 0.1458583772 0.1780725121 1.871571286e-38
0.4134911895 0.1440521628 0.1780520678 1.871571286e-38
0.4134437144 0.1422463655 0.1780316234 1.871571286e-38
0.4133962691 0.1404409856 0.1780112088 1.871571286e-38
0.4133488238 0.1386360228 0.1779907793 1.871571286e-38
0.4133014083 0.1368314624 0.1779703498 1.871571286e-38
0.4132539928 0.1350273341 0.1779499352 1.871571286e-38
0.4132065773 0.1332236081 0.1779295206 1.871571286e-38
0.4131591916 0.1314202994 0.177909106 1.871571286e-38
0.4131117761 0.129617393 0.1778887063 1.871571286e-38
0.4130644202 0.1278149039 0.1778683066 1.871571286e-38
0.4130170643 0.1260128468 0.1778479218 1.871571286e-38
0.4129697084 0.1242111772 0.1778275222 1.871571286e-38
0.4129223526 0.1224099323 0.1778071374 1.871571286e-38
0.4128750265 0.1206090972 0.1777867526 1.871571286e-38
0.4128277302 0.1188086867 0.1777663827 1.871571286e-38
0.4127804041 0.1170086786 0.1777460128 1.871571286e-38
0.4127331078 0.1152090803 0.1777256429 1.871571286e-38
0.4126858413 0.1134099066 0.1777052879 1.871571286e-38
0.4126385748 0.1116111279 0.1776849329 1.871571286e-38
0.4125913084 0.1098127663 0.177664578 1.871571286e-38
0.4125440121 0.1080148146 0.177644223 1.871571286e-38
0.4124968052 0.1062172949 0.1776238978 1.871571286e-38
0.4124495387 0.1044201627 0.1776035279 1.871571286e-38
0.4124023318 0.1026234552 0.1775832027 1.871571286e-38
0.412355125 0.1008271575 0.1775628775 1.871571286e-38
0.4123079479 0.099031277 0.1775425673 1.871571286e-38
0.4122607112 0.09723578393 0.1775222272 1.871571286e-38
0.4122135639 0.09544073045 0.1775019318 1.871571286e-38
0.4121664166 0.09364607185 0.1774816066 1.871571286e-38
0.4121192694 0.09185183048 0.1774613112 1.880790849e-38
0.4120720923 0.09005799145 0.1774410009 1.880790849e-38
0.412024945 0.08826456964 0.1774207056 1.880790849e-38
0.4119778275 0.08647155762 0.1774004102 1.880790849e-38
0.4119307101 0.08467894793 0.1773801148 1.880790849e-38
0.4118836224 0.08288675547 0.1773598492 1.880790849e-38
0.4118365347 0.08109497279 0.1773395687 1.880790849e-38
0.4117894769 0.07930359989 0.1773193032 1.880790849e-38
0.4117423594 0.07751262933 0.1772990227 1.880790849e-38
0.4116953313 0.075722076 0.1772787571 1.880790849e-38
0.4116482735 0.07393193245 0.1772585064 1.880790849e-38
0.4116012454 0.07214219868 0.1772382408 1.880790849e-38
0.4115541875 0.07035286725 0.1772179902 1.880790849e-38
0.4115071893 0.06856395304 0.1771977395 1.880790849e-38
0.411460191 0.06677544862 0.1771775186 1.880790849e-38
0.4114131629 0.06498733163 0.177157253 1.880790849e-38
0.4113661945 0.06319963932 0.1771370322 1.880790849e-38
0.411319226 0.06141236052 0.1771168113 1.880790849e-38
0.4112722576 0.05962548032 0.1770965904 1.880790849e-38
0.4112253189 0.05783901364 0.1770763695 1.880790849e-38
0.4111783803 0.056052953 0.1770561635 1.880790849e-38
0.4111314714 0.05426730216 0.1770359576 1.880790849e-38
0.4110845327 0.05248205736 0.1770157516 1.880790849e-38
0.4110375941 0.0506972149 0.1769955456 1.880790849e-38
0.410990715 0.04891278595 0.1769753546 1.880790849e-38
0.410943836 0.04712876305 0.1769551635 1.880790849e-38
0.4108969271 0.04534514248 0.1769349724 1.880790849e-38
0.4108500779 0.04356193542 0.1769147962 1.880790849e-38
0.4108032286 0.0417791307 0.1768946201 1.880790849e-38
0.4107563794 0.03999673575 0.1768744588 1.880790849e-38
0.4107095599 0.03821474314 0.1768542826 1.880790849e-38
0.4106627405 0.03643316031 0.1768341213 1.880790849e-38
0.410615921 0.03465198353 0.1768139601 1.880790849e-38
0.4105691016 0.03287121281 0.1767937988 1.880790849e-38
0.4105222821 0.03109084256 0.1767736524 1.880790849e-38
0.4104755521 0.02931088582 0.176753521 1.880790849e-38
0.4104287624 0.02753133141 0.1767333746 1.880790849e-38
0.4103819728 0.02575218119 0.1767132282 1.880790849e-38
0.4103352427 0.02397343889 0.1766930968 1.880790849e-38
0.4102885127 0.02219509892 0.1766729802 1.880790849e-38
0.4102418125 0.02041716501 0.1766528636 1.880790849e-38
0.4101950526 0.01863963529 0.1766327322 1.880790849e-38
0.4101483822 0.0168625135 0.1766126305 1.880790849e-38
0.4101016521 0.0150857931 0.1765925139 1.880790849e-38
0.4100550115 0.01330948062 0.1765724272 1.880790849e-38
0.4100082815 0.01153356954 0.1765523106 1.880790849e-38
0.4099616408 0.009758064523 0.1765322238 1.880790849e-38
0.4099150002 0.007982963696 0.1765121371 1.880790849e-38
0.4098683596 0.0062082652 0.1764920503 1.880790849e-38
0.4098216891 0.004433970433 0.1764719635 1.880790849e-38
0.4097751081 0.002660081023 0.1764519066 1.880790849e-38
0.4097284973 0.0008865941782 0.1764318347 1.880790849e-38
0.4096818268 -0.0008864891133 0.1764117628 1.880790849e-38
0.4096352458 -0.002659169026 0.1763917059 1.880790849e-38
0.4095886648 -0.004431446083 0.176371634 1.880790849e-38
0.4095421135 -0.006203319412 0.1763515919 1.880790849e-38
0.4094955325 -0.007974790409 0.176331535 1.890010412e-38
0.4094489813 -0.00974585861 0.1763114929 1.890010412e-38
0.4094024599 -0.01151652448 0.1762914658 1.890010412e-38
0.4093559086 -0.01328678802 0.1762714088 1.890010412e-38
0.409309417 -0.01505664922 0.1762513965 1.890010412e-38
0.4092628956 -0.0168261081 0.1762313694 1.890010412e-38
0.4092164338 -0.01859516464 0.1762113422 1.890010412e-38
0.4091699421 -0.02036381885 0.17619133 1.890010412e-38
0.4091234505 -0.02213207074 0.1761713177 1.890010412e-38
0.4090769887 -0.02389992215 0.1761513054 1.890010412e-38
0.4090305567 -0.02566737309 0.1761313081 1.890010412e-38
0.4089840949 -0.02743441984 0.1761113107 1.890010412e-38
0.4089376628 -0.02920106798 0.1760913134 1.890010412e-38
0.4088912606 -0.0309673138 0.1760713309 1.890010412e-38
0.4088448584 -0.032733161 0.1760513484 1.890010412e-38
0.4087984562 -0.03449860588 0.176031366 1.890010412e-38
0.408752054 -0.03626364842 0.1760113835 1.890010412e-38
0.4087056816 -0.03802829236 0.175991416 1.890010412e-38
0.4086592793 -0.03979253024 0.1759714484 1.890010412e-38
0.4086129665 -0.04155637696 0.1759514958 1.890010412e-38
0.4085665941 -0.04331981763 0.1759315282 1.890010412e-38
0.4085202813 -0.04508286342 0.1759115905 1.890010412e-38
0.4084739387 -0.04684550315 0.1758916229 1.890010412e-38
0.4084275961 -0.04860775173 0.1758716851 1.890010412e-38
0.4083813131 -0.05036959425 0.1758517474 1.890010412e-38
0.4083350301 -0.05213103816 0.1758318096 1.890010412e-38
0.4082887471 -0.05389208347 0.1758118868 1.890010412e-38
0.4082424939 -0.05565273017 0.1757919639 1.890010412e-38
0.4081962407 -0.05741297826 0.1757720411 1.890010412e-38
0.4081499279 -0.0591728203 0.1757521182 1.890010412e-38
0.4081037045 -0.06093227118 0.1757322103 1.890010412e-38
0.4080574811 -0.06269132346 0.1757123023 1.890010412e-38
0.4080112576 -0.0644499734 0.1756924093 1.890010412e-38
0.4079650342 -0.06620822102 0.1756725013 1.890010412e-38
0.4079188406 -0.0679660812 0.1756526083 1.890010412e-38
